# .PCD v0.7 - Point Cloud Data file format
VERSION 0.7
FIELDS x y z
SIZE 4 4 4
TYPE F F F
COUNT 1 1 1
WIDTH 1418
HEIGHT 1
VIEWPOINT 0 0 0 1 0 0 0
POINTS 1418
DATA ascii
0.042243436 0.06164521 2.0002151
0.028484538 0.061647769 2.0004563
0.014695059 0.061527073 1.9966058
0.00088637602 0.056728907 1.8397325
-0.009682402 0.046642087 1.5098563
-0.020027276 0.046488196 1.5047575
-0.030362926 0.046425246 1.5025867
-0.040777057 0.046483792 1.5043424
-0.051081985 0.046419352 1.502031
-0.061357167 0.046354175 1.4996496
-0.071838439 0.046441033 1.5021909
-0.082032673 0.046343829 1.4986713
-0.092060305 0.046184819 1.4930879
-0.10282774 0.046391595 1.4994053
-0.11331304 0.046444897 1.500662
-0.1233323 0.046314254 1.4958686
-0.13320319 0.046152409 1.4900137
-0.14404356 0.046325594 1.4950402
-0.15424679 0.046284392 1.4930279
-0.1647545 0.046333998 1.4939277
-0.17528149 0.046382848 1.4947543
-0.18546128 0.04633949 1.4925312
-0.19458853 0.046051618 1.4823099
-0.20602463 0.046311632 1.4898605
-0.21714582 0.0464794 1.494356
-0.22714548 0.046402749 1.4908627
-0.23850965 0.046599388 1.4961895
-0.24784432 0.046399631 1.4886097
-0.25962546 0.046655547 1.4957498
-0.27028382 0.046697736 1.4959112
-0.28059128 0.046678416 1.4940323
-0.28899208 0.046354648 1.4822685
-0.3017554 0.046728827 1.4930035
-0.31224582 0.04673779 1.4918882
-0.32294488 0.046776399 1.4916773
-0.33430433 0.046905246 1.4943182
-0.34437883 0.046851449 1.4910275
-0.35534221 0.046918191 1.4915611
-0.36609352 0.046953909 1.4910433
-0.37709779 0.04701918 1.4914186
-0.38787577 0.047053471 1.4907455
-0.39840719 0.04705682 1.4890288
-0.41103411 0.047301151 1.4949541
-0.4280664 0.048027515 1.5161787
-0.53801852 0.058888946 1.8600657
-0.57875443 0.06183691 1.9512774
-0.5965094 0.062249329 1.9616324
-0.61827314 0.063051797 1.9842497
-0.64067739 0.063882411 2.0076125
-0.64770955 0.063177459 1.982269
-0.64026278 0.06112038 1.914233
-0.67079198 0.062698729 1.9609226
-0.69674826 0.063793875 1.9921728
-0.71013284 0.063717149 1.9864184
-0.72313386 0.063609697 1.9796338
-0.73607868 0.063501537 1.972764
-0.76345837 0.064619228 2.0041435
-0.77439266 0.064329341 1.9914089
-0.78006494 0.06362085 1.9655974
-0.80330867 0.064345166 1.9843228
-0.8151021 0.06414298 1.9741465
-0.84259444 0.065161839 2.0017164
-0.84779453 0.064451419 1.9756589
-0.87416792 0.065347478 1.9991394
-0.8912074 0.065527849 2.0004079
-0.907489 0.065647557 1.9997116
-0.92005777 0.065499149 1.9907075
-0.94523847 0.066239186 2.0087941
-0.95011693 0.065555625 1.9832935
-0.96383721 0.065493606 1.9767154
-0.97972471 0.065578505 1.9745246
-1.0005571 0.065987021 1.9820373
-1.0238134 0.066541232 1.9938074
-1.0376254 0.066474542 1.9867116
-1.0532577 0.066524707 1.983055
-1.0679498 0.066514917 1.977513
-1.0821427 0.066474736 1.9709828
-1.1069548 0.067079142 1.9835867
-1.1334676 0.067769088 1.998552
-1.1369203 0.067080289 1.9724617
-1.1526281 0.067123063 1.9680231
-1.1845961 0.068099491 1.9910036
-1.2123132 0.068809919 2.0059178
-1.1830927 0.066311263 1.9266399
-1.2422488 0.068766564 1.9923681
-1.2380252 0.067696281 1.9549539
-1.2591553 0.068021446 1.9581414
-1.2771312 0.06817051 1.9560943
-1.305029 0.068839438 1.9689227
-1.2976466 0.067653447 1.9282511
-1.3307039 0.068578817 1.9481816
1.4041146 0.055482268 2.0220027
1.3871611 0.055441886 2.0275416
1.3651985 0.055198036 2.0254633
1.3449848 0.055019993 2.0256817
1.3330017 0.055178422 2.038295
1.3128347 0.05499782 2.0382028
1.2943349 0.054883514 2.0404658
1.2679696 0.054428741 2.0298235
1.2537988 0.054492626 2.0385399
1.2297882 0.054125037 2.0308738
1.2237656 0.054549862 2.053087
1.2094498 0.054611243 2.0614884
1.1930929 0.054580871 2.066318
1.1683835 0.054162491 2.0562148
1.1467867 0.053879052 2.0511124
1.1277171 0.053708214 2.0501959
1.1101395 0.05360467 2.051754
1.0790588 0.052837033 2.0275297
1.0585091 0.052570496 2.0224922
1.0508173 0.052944079 2.042196
1.035284 0.052927744 2.0466983
1.0122232 0.05252035 2.035841
0.99154782 0.052226264 2.0292599
0.97961718 0.052390821 2.04054
0.96504062 0.052416798 2.0463176
0.9491834 0.052372932 2.0492642
0.94115186 0.052766416 2.0694005
0.90980399 0.051844127 2.0374236
0.89649224 0.051936004 2.0454516
0.87958539 0.051819194 2.0451157
0.86620575 0.051909741 2.0529428
0.85124528 0.05190707 2.0569823
0.83179259 0.051625479 2.0497839
0.81321746 0.051389128 2.0442753
0.78718495 0.050664067 2.0190279
0.78173995 0.051261682 2.0468051
0.77003962 0.051464193 2.0586684
0.7503618 0.051131021 2.048856
0.73789501 0.051285729 2.0586503
0.72204602 0.051206898 2.0589278
0.70075399 0.050730731 2.0429962
0.68697822 0.050790027 2.0486875
0.67346948 0.050872058 2.0552363
0.65324628 0.050439294 2.0407345
0.63799459 0.05037947 2.0413306
0.62508506 0.0505061 2.0494688
0.60898179 0.050374571 2.0469785
0.59045476 0.050031271 2.0357177
0.57616216 0.050038587 2.0387399
0.54341859 0.048402827 1.9741533
0.54291844 0.049628526 2.0270917
0.53296405 0.050032817 2.0462368
0.5171718 0.049896292 2.0430393
0.50097525 0.049711872 2.03778
0.48717928 0.049761821 2.042124
0.46730837 0.049175523 2.020067
0.45058396 0.048894092 2.0105221
0.43485397 0.048705932 2.0047536
0.4218725 0.048823327 2.0115881
0.4076364 0.048798621 2.0124593
0.39169556 0.048560802 2.0043969
0.38029116 0.048888605 2.0197976
0.35878775 0.047893457 1.9800352
0.35197172 0.0488577 2.0218415
0.33201417 0.048002087 1.9877032
0.31097192 0.04690868 1.943516
0.30704838 0.048415463 2.0078611
0.2915169 0.048148066 1.998036
0.27913675 0.048400432 2.0098815
0.26310545 0.048012998 1.9948872
0.25098088 0.048335042 2.0095332
0.237855 0.048490696 2.0171556
0.22507428 0.048740458 2.0286682
0.21101828 0.048728883 2.0291619
0.19514471 0.048266117 2.0106516
0.180424 0.048039488 2.0019784
0.1696144 0.048902959 2.0390303
0.1547607 0.048651107 2.0291739
0.14018656 0.048445851 2.0212061
0.12628481 0.048453312 2.0221152
0.11221185 0.048388798 2.0199349
0.098222584 0.048347235 2.018656
0.08429724 0.048328616 2.01828
0.070692733 0.048522875 2.0268011
0.05611496 0.047980413 2.004251
0.042204265 0.047840722 1.9985899
0.028486371 0.047890194 2.0008302
0.014717903 0.047867659 1.9999777
0.0008897761 0.044235256 1.8470743
-0.0096576428 0.03613827 1.5061402
-0.020028563 0.036113691 1.5050395
-0.030364877 0.036064789 1.5028681
-0.040833306 0.036157757 1.5066231
-0.051152535 0.036107697 1.5043108
-0.061522905 0.03610453 1.5039262
-0.071937568 0.03612452 1.5044695
-0.082037933 0.036001541 1.4989523
-0.092127092 0.035901736 1.4943656
-0.10290203 0.036062367 1.5006839
-0.11317128 0.036032606 1.4989496
-0.12325887 0.03595484 1.495153
-0.13338791 0.035900254 1.4922853
-0.14405273 0.035987355 1.4953208
-0.15364648 0.035813142 1.4873412
-0.16465648 0.035970181 1.4932145
-0.17540787 0.036055516 1.4960285
-0.18522899 0.035950776 1.4908278
-0.19575992 0.03598759 1.4915116
-0.20495321 0.035787143 1.4822172
-0.21673258 0.036035828 1.4916691
-0.22894841 0.036331106 1.5030067
-0.23743406 0.036034506 1.4895593
-0.24948515 0.036281198 1.4987551
-0.25845689 0.036078244 1.4891355
-0.26959682 0.036181934 1.492258
-0.28097409 0.036308605 1.4962809
-0.29166147 0.036340237 1.496292
-0.30157802 0.036276959 1.4923064
-0.31185958 0.036260348 1.4902136
-0.32170814 0.036196094 1.4860958
-0.3341088 0.03641402 1.4936266
-0.34506831 0.036466405 1.4942354
-0.35467574 0.036377031 1.4889264
-0.36540776 0.036404811 1.4884137
-0.37833419 0.036643587 1.4965529
-0.38864723 0.036623165 1.4939352
-0.39945489 0.036649205 1.4931799
-0.41263387 0.036885876 1.5010289
-0.42513239 0.037051387 1.5058788
-0.53722399 0.045676548 1.8575401
-0.58132905 0.048247714 1.9602844
-0.60520744 0.049059484 1.9907237
-0.61565256 0.048770156 1.9760362
-0.63407618 0.049111661 1.9870328
-0.6471315 0.049031556 1.9807507
-0.61196893 0.045379367 1.8292058
-0.67629355 0.049102928 1.9773973
-0.69515073 0.049440559 1.9878381
-0.71017474 0.049497496 1.9868056
-0.72283578 0.049390744 1.9790804
-0.73681605 0.049376503 1.9750252
-0.76385659 0.050221492 2.0054717
-0.77515757 0.05001948 1.9936656
-0.78780174 0.049909931 1.9855195
-0.80298281 0.049962141 1.9837866
-0.81704432 0.049944084 1.9791626
-0.83879036 0.050388277 1.9928881
-0.85763401 0.050646003 1.9990474
-0.87620813 0.050879471 2.0041234
-0.88883376 0.050765529 1.9953209
-0.90179485 0.050674129 1.9873496
-0.92094421 0.05092784 1.9929243
-0.93387324 0.050835006 1.9847399
-0.94759679 0.050787613 1.9782763
-0.96040976 0.050693601 1.9699159
-0.98552108 0.051241837 1.9865857
-1.0050917 0.051490095 1.9913796
-1.0220569 0.051599607 1.990651
-1.0399848 0.051753901 1.9915563
-1.0561147 0.051815629 1.9887689
-1.066595 0.051602297 1.9752768
-1.0874654 0.051890619 1.9810475
-1.1031443 0.051926762 1.9770006
-1.1237271 0.052189693 1.981542
-1.1379784 0.052155506 1.9746085
-1.1471698 0.051893331 1.9589264
-1.1617945 0.051880512 1.9526799
-1.1964444 0.052750919 1.9797609
-1.2237269 0.053278781 1.9936453
-1.2228602 0.052583188 1.9613328
-1.2513928 0.053153314 1.9765337
-1.2672935 0.053179607 1.9712023
-1.2695967 0.052641492 1.9447657
-1.3034573 0.053409103 1.9668398
-1.309934 0.053049855 1.9469603
-1.3145188 0.052623138 1.9246019
1.4041765 0.039540838 2.0223315
1.3675653 0.038952172 1.998917
1.3602555 0.039194115 2.0183108
1.351095 0.039387792 2.0351918
1.3346928 0.039372459 2.0411382
1.3075068 0.039034795 2.0301039
1.2879993 0.038920946 2.0306368
1.2701318 0.038854457 2.033545
1.2522905 0.038787115 2.0363019
1.2308714 0.038605854 2.032908
1.2095644 0.038423508 2.0293138
1.1964209 0.038499124 2.0393455
1.1737558 0.038266305 2.0328074
1.1566465 0.038210824 2.0356326
1.1429551 0.038268287 2.044436
1.1277658 0.038276482 2.050513
1.1149174 0.038365457 2.0608792
1.0884442 0.037981492 2.0455241
1.0765275 0.038101774 2.0574081
1.0572286 0.037960477 2.0549748
1.0321885 0.037605856 2.040755
1.0202305 0.037724391 2.0522902
1.0038055 0.037678838 2.0547583
0.99170095 0.037796549 2.066123
0.9693206 0.037520181 2.0556815
0.95047724 0.037374128 2.0522974
0.92720634 0.037046473 2.0387259
0.90943825 0.036931548 2.0368142
0.89772743 0.037062872 2.0485072
0.88040864 0.036963195 2.0472593
0.86354005 0.036879316 2.0467918
0.85090262 0.036976364 2.0563622
0.83929932 0.037122611 2.0686364
0.81031573 0.036491476 2.0371366
0.791188 0.036289044 2.0295827
0.77504098 0.036218274 2.0293417
0.76033014 0.036213193 2.0327239
0.74834543 0.036340296 2.0435171
0.73625189 0.03646709 2.0542407
0.71419007 0.036095247 2.0365646
0.70142955 0.036187798 2.0451863
0.6806944 0.035864122 2.0300109
0.66607797 0.035855774 2.0327139
0.65236723 0.035896886 2.0381708
0.63980037 0.036004245 2.0473554
0.62598199 0.036044512 2.052635
0.61014163 0.03596751 2.0511091
0.59020483 0.03563939 2.0350497
0.57726812 0.035728149 2.0428829
0.56188285 0.035666019 2.0419538
0.54756612 0.035670225 2.0447752
0.52598196 0.035188477 2.0194242
0.51402843 0.035342172 2.030725
0.49128154 0.034741368 1.9982444
0.48006064 0.034944285 2.0122533
0.46867213 0.035146911 2.0262015
0.45494577 0.035181381 2.0303278
0.43908179 0.035047445 2.0245872
0.41476205 0.034207221 1.9776124
0.40726125 0.034744035 2.0107837
0.39285573 0.034709066 2.01057
0.37571803 0.034421198 1.9955119
0.35986602 0.034233559 1.9862195
0.3336058 0.033001333 1.9157184
0.29933354 0.030841218 1.7907032
0.2797938 0.030077567 1.7472785
0.28576195 0.032111038 1.8677713
0.2886655 0.033976804 1.9785264
0.27232474 0.033650536 1.9606392
0.26246917 0.034133423 1.9902104
0.25099272 0.034447301 2.0098152
0.23635566 0.034338769 2.004529
0.22388133 0.034550495 2.0180209
0.21072042 0.034677327 2.026463
0.19496232 0.034364406 2.0089433
0.18239193 0.034608457 2.0241687
0.16805956 0.034530923 2.0203831
0.15423991 0.034554243 2.0224793
0.14019328 0.0345263 2.0214894
0.12610532 0.034480881 2.0194046
0.11221724 0.034485642 2.0202179
0.0982273 0.034456015 2.0189385
0.084508322 0.034527332 2.0235574
0.070038974 0.034259748 2.0080986
0.056284264 0.034296114 2.0105281
0.042583324 0.03439961 2.0168629
0.028756095 0.034451809 2.0201056
0.014711313 0.034097321 1.9992577
0.00089220726 0.031610116 1.8523324
-0.0096898368 0.025839567 1.5113506
-0.020082202 0.025805127 1.5092494
-0.030506276 0.025821032 1.5100765
-0.040754832 0.025718087 1.5038359
-0.051121362 0.025716247 1.5035224
-0.061444964 0.025697077 1.5021392
-0.071799226 0.025694411 1.5016845
-0.082258195 0.02572516 1.5031562
-0.092375085 0.025654027 1.4985676
-0.10250074 0.025599407 1.4949093
-0.1131022 0.025662741 1.4981631
-0.12334608 0.025641127 1.4963597
-0.13401102 0.025703611 1.4994668
-0.1443443 0.025698083 1.4985172
-0.15395887 0.025573906 1.4905343
-0.16477278 0.02565204 1.4944187
-0.17507043 0.025645314 1.4932594
-0.18535979 0.025638195 1.49203
-0.19512522 0.025563186 1.4867642
-0.20631845 0.025673378 1.4923325
-0.21631584 0.025631338 1.4889107
-0.22761764 0.025740648 1.4943206
-0.23884743 0.025832636 1.4986587
-0.24868414 0.025772562 1.4940341
-0.25965384 0.025830012 1.4962442
-0.27048934 0.0258702 1.4973905
-0.28025645 0.025809016 1.492561
-0.29129627 0.02586522 1.4945409
-0.30237639 0.025920995 1.4964402
-0.31248239 0.025892321 1.4933629
-0.32318917 0.025913678 1.4931508
-0.33304361 0.025867496 1.4889582
-0.34463862 0.0259552 1.492499
-0.35515088 0.0259586 1.4910854
-0.36518842 0.025928093 1.4876549
-0.3785941 0.026131772 1.4977371
-0.38866493 0.026100464 1.4941493
-0.39896125 0.026085556 1.4914612
-0.41055253 0.026153905 1.4935261
-0.42703524 0.026522631 1.5128363
-0.53587002 0.032469075 1.8530017
-0.57627535 0.034084532 1.9433007
-0.59974819 0.034646571 1.9728229
-0.61922365 0.034957353 1.9877847
-0.62837011 0.034684166 1.9692087
-0.60584563 0.032712802 1.8535851
-0.6233294 0.032939669 1.8636358
-0.66796988 0.034562219 1.9530671
-0.68731523 0.034836374 1.9654567
-0.71187717 0.035358649 1.9918071
-0.72286767 0.035199568 1.97937
-0.73684853 0.035189416 1.9753149
-0.75894129 0.035559729 1.9926716
-0.77087301 0.035449054 1.9827647
-0.78197592 0.035304982 1.9709264
-0.79929149 0.035441536 1.9748013
-0.80836338 0.035214182 1.9581747
-0.82495552 0.035316624 1.9599688
-0.84161448 0.035418402 1.9616259
-0.85754329 0.035486564 1.9613106
-0.87957519 0.035800904 1.9745853
-0.88869846 0.03558816 1.9584726
-0.91723359 0.036147177 1.9850441
-0.93475962 0.03626164 1.9868513
-0.94849592 0.036227826 1.9803811
-0.96132195 0.036160793 1.9720144
-0.97894007 0.036273334 1.9734311
-0.99797142 0.036434155 1.9773786
-1.0270934 0.036953352 2.0007555
-1.0455495 0.037079446 2.0025148
-1.0566262 0.036943972 1.9899591
-1.0699459 0.036889605 1.9817506
-1.0894252 0.037046179 1.9848663
-1.1075504 0.037153091 1.98518
-1.1174016 0.036983307 1.970522
-1.1390201 0.037202332 1.9766529
-1.1607809 0.037420254 1.9825759
-1.1842073 0.037685584 1.9908735
-1.192897 0.037481155 1.9740703
-1.207657 0.037470195 1.9674879
-1.230803 0.037716489 1.9743992
-1.2088991 0.036593106 1.9091135
-1.2270215 0.036693797 1.9082934
-1.2848706 0.037965953 1.9685764
-1.3112048 0.038287904 1.978853
-1.313877 0.037919462 1.9530965
-1.3459829 0.038399193 1.9712696
1.4008135 0.02354046 2.0176098
1.3805228 0.023465924 2.0181608
1.3686336 0.023534123 2.0309951
1.3439825 0.023381898 2.0245545
1.3276551 0.023372587 2.0304511
1.2919273 0.023017412 2.0058856
1.3072132 0.023573527 2.061317
1.2638466 0.023072615 2.0235608
1.2502428 0.023109319 2.0331018
1.2396622 0.023203541 2.0476921
1.2070535 0.022882581 2.0252223
1.2040021 0.023120888 2.05252
1.1792583 0.022943418 2.042562
1.1547149 0.022765173 2.0323589
1.1444433 0.022867279 2.0472701
1.1373799 0.023037167 2.0682776
1.1054885 0.022701904 2.0434706
1.0819379 0.022530904 2.0333538
1.0724106 0.022651218 2.0496309
1.048619 0.022469368 2.0382628
1.0313209 0.02242336 2.0391746
0.99990755 0.022064505 2.0112469
0.99510914 0.022290973 2.0369699
0.99732012 0.022683831 2.0780656
0.96426231 0.022274248 2.0450194
0.9530102 0.022363374 2.0579536
0.92682153 0.022099223 2.0380173
0.91675633 0.022217164 2.0534723
0.89177102 0.021971429 2.0349555
0.88043404 0.022059336 2.0474617
0.86510992 0.022048652 2.0506833
0.83839124 0.021742096 2.0260398
0.82811767 0.021858688 2.0410123
0.81107354 0.021797555 2.0391963
0.79373652 0.021726141 2.0363092
0.78037941 0.02176303 2.0435653
0.76870406 0.021849133 2.0554204
0.74016982 0.021450043 2.0211606
0.73627359 0.021763274 2.0544398
0.72012722 0.021719798 2.0537608
0.69371724 0.02135851 2.0226653
0.68608189 0.021572197 2.0463359
0.66888082 0.021487858 2.0414679
0.65208387 0.021413049 2.0374138
0.63596863 0.021357737 2.0351357
0.61846894 0.021252286 2.0279477
0.60534662 0.021295812 2.0350018
0.59132886 0.021309193 2.0390878
0.57728541 0.021322295 2.0430777
0.56216323 0.021295197 2.043113
0.54783952 0.021297719 2.0459361
0.53200352 0.021240002 2.0428512
0.51526207 0.021141931 2.0357666
0.49579945 0.02092343 2.0168917
0.48560393 0.021094669 2.0357966
0.471371 0.021095572 2.0380881
0.45691329 0.021086158 2.0393047
0.44014728 0.020966183 2.0296662
0.42618316 0.020976134 2.0326216
0.40628862 0.020684844 2.0060711
0.3903935 0.020583667 1.9979976
0.36269116 0.01982948 1.9259107
0.32962203 0.018712759 1.8181124
0.30331835 0.017906347 1.7405046
0.29149556 0.017923322 1.7435194
0.27948907 0.017929981 1.7454672
0.27452004 0.018409174 1.7937983
0.27993551 0.019663284 1.9183438
0.27342537 0.020162949 1.9687475
0.26507241 0.020571997 2.0102267
0.25112364 0.020568 2.0109954
0.23880346 0.020704737 2.0255728
0.22301301 0.020538887 2.0102575
0.20959799 0.020584319 2.0157104
0.19611874 0.020629451 2.0210743
0.18132895 0.020533085 2.0124054
0.1691343 0.020738967 2.0335264
0.1544712 0.020652022 2.0256588
0.1406097 0.020665618 2.0276628
0.12617119 0.020588065 2.0205905
0.11211074 0.020560628 2.0184088
0.098182209 0.020553039 2.0181272
0.08430399 0.020555219 2.0187502
0.070663802 0.020627744 2.0262735
0.056535974 0.020558583 2.019711
0.042417113 0.020448687 2.0090525
0.028601645 0.020449538 2.0092947
0.014726386 0.020369269 2.0014436
0.00088889222 0.018794028 1.8455048
-0.0096774539 0.015400695 1.5094913
-0.020069677 0.01539024 1.5083902
-0.03050725 0.015409834 1.5102172
-0.040782947 0.015358492 1.5049756
-0.050988462 0.015306909 1.499665
-0.061406478 0.01532576 1.5012801
-0.071706988 0.015314075 1.4998269
-0.082098559 0.015322332 1.5003008
-0.092317119 0.015300069 1.497709
-0.10284253 0.015328021 1.500037
-0.11280774 0.015275002 1.4943141
-0.12286215 0.015241939 1.4905195
-0.13383907 0.015319582 1.4976147
-0.14434889 0.015336452 1.4986572
-0.15467559 0.015332908 1.4976369
-0.16521192 0.015349286 1.4985347
-0.17507596 0.015304958 1.4933991
-0.18512157 0.015280561 1.4901847
-0.19526015 0.015266012 1.487895
-0.20524046 0.015241168 1.4845465
-0.21674958 0.015326805 1.4920195
-0.22717755 0.015331667 1.4914945
-0.23792003 0.015356405 1.4928728
-0.2486919 0.015380893 1.4941746
-0.25881556 0.015364933 1.4914575
-0.26996973 0.015409025 1.4945784
-0.28117859 0.015452848 1.497617
-0.29130527 0.015436186 1.4946816
-0.30160135 0.015429342 1.4926593
-0.31208643 0.015432303 1.4915456
-0.32215181 0.01541499 1.4884033
-0.33240542 0.015407485 1.4861702
-0.34420356 0.015469855 1.4906907
-0.3551617 0.015491907 1.4912268
-0.36543557 0.015483703 1.4887677
-0.37860557 0.015595253 1.4978793
-0.3891753 0.015596551 1.4962282
-0.4015325 0.015667526 1.5012698
-0.41056496 0.01560846 1.4936689
-0.426779 0.015818536 1.512018
-0.53478342 0.019337431 1.849334
-0.58842802 0.020769741 1.9847366
-0.60496384 0.020856004 1.990244
-0.61392659 0.020683205 1.9707788
-0.62054145 0.020440757 1.944612
-0.59044719 0.019025989 1.8062024
-0.60886598 0.019201437 1.8201571
-0.65610135 0.020259377 1.9182196
-0.696513 0.021067675 1.9920987
-0.71022683 0.02105223 1.9872881
-0.72322947 0.021016724 1.9805025
-0.74242342 0.021159036 1.9905113
-0.76143789 0.021290956 1.9994138
-0.77557397 0.021284105 1.9950866
-0.7816323 0.021059861 1.9701887
-0.80341381 0.021259697 1.9852027
-0.83074719 0.021596843 2.0129631
-0.83653903 0.021372005 1.9878439
-0.85847926 0.021560358 2.0013828
-0.86910838 0.021463089 1.9881083
-0.88243014 0.021434421 1.9811838
-0.88995546 0.021268155 1.9614031
-0.9205938 0.02165075 1.9925143
-0.9347865 0.021640649 1.9870502
-0.94895226 0.02163025 1.981483
-0.96439719 0.021648884 1.9785143
-0.98868275 0.021862445 1.9933683
-1.0203867 0.022231346 2.0222847
-1.0348387 0.022219125 2.0161057
-1.0451193 0.022118971 2.0018308
-1.0566564 0.022047859 1.9901623
-1.0761149 0.022141712 1.9934121
-1.0875432 0.02207003 1.9815573
-1.1051606 0.022124184 1.9810103
-1.1135111 0.021993859 1.9637539
-1.1410378 0.022240741 1.98033
-1.1552891 0.022225805 1.9732711
-1.1684853 0.022191219 1.9643854
-1.1754485 0.022040639 1.9451181
-1.2097721 0.022400431 1.9711111
-1.2276826 0.022451179 1.9695047
-1.2477603 0.022539837 1.9711301
-1.2620083 0.022522319 1.9632958
-1.2843642 0.022648195 1.9679469
-1.3035523 0.022715898 1.9673669
-1.3011479 0.022410136 1.9341761
-1.3454611 0.022906782 1.9706538
1.3792739 0.0075173788 1.9864262
1.3889679 0.0076571582 2.0306792
1.3508642 0.0075336224 2.0045035
1.3478528 0.0076051885 2.0305071
1.3303959 0.0075959801 2.0347526
1.31618 0.007605277 2.0439079
1.2928491 0.007561489 2.0385747
1.2733476 0.0075392956 2.0389657
1.247135 0.0074763154 2.0280862
1.2334995 0.0074880924 2.0375121
1.202998 0.0073964726 2.0184412
1.1994908 0.0074706012 2.044848
1.1762921 0.007422423 2.037461
1.1537489 0.0073771537 2.0307207
1.1531922 0.0074731428 2.0631144
1.1378752 0.0074747978 2.0692604
1.1121268 0.0074070236 2.0559087
1.0898914 0.0073610689 2.0484891
1.0641302 0.0072896495 2.0337598
1.060457 0.0073696617 2.0615211
1.0344757 0.0072947186 2.0455327
1.0264683 0.0073461737 2.0651548
1.004721 0.0072993659 2.0568674
0.97927135 0.0072238087 2.0402517
0.9596135 0.0071892827 2.0351577
0.94550639 0.0071959081 2.0417001
0.92765754 0.0071738102 2.0399408
0.9058314 0.0071197287 2.0288885
0.90095681 0.0071993005 2.0561469
0.88044655 0.0071545113 2.0475619
0.86937058 0.0071861637 2.0609295
0.84638083 0.0071187201 2.0455644
0.82887661 0.0070958319 2.0429668
0.80851501 0.0070472062 2.0327842
0.7987991 0.0070912885 2.0494647
0.78039074 0.0070584118 2.043664
0.76349527 0.0070382189 2.0414572
0.75316012 0.0070788939 2.0569718
0.73494375 0.0070456401 2.0507698
0.72046638 0.0070476062 2.0548036
0.70661587 0.0070559136 2.0606284
0.69209093 0.0070576952 2.0644617
0.67445701 0.0070271632 2.0586829
0.65723991 0.0069997148 2.0537126
0.63538557 0.0069205123 2.0333221
0.6228233 0.0069411905 2.0424006
0.60903633 0.0069488771 2.0475657
0.59272057 0.0069273841 2.0439892
0.57756418 0.0069187051 2.0441372
0.56427902 0.0069325734 2.0509264
0.54604983 0.0068848324 2.0392675
0.53251195 0.0068952609 2.0448833
0.51210266 0.0068148281 2.0232537
0.49817696 0.0068185474 2.0267015
0.48492014 0.0068319091 2.0329728
0.46578515 0.0067607583 2.0138171
0.45366424 0.0067901523 2.0247574
0.43131724 0.0066634556 1.9887012
0.41416994 0.0066113337 1.9749538
0.38895538 0.0064224205 1.9198903
0.36089584 0.0061713965 1.8459255
0.32762071 0.0058093434 1.7382494
0.31352615 0.0057726698 1.7286332
0.30162087 0.0057749874 1.7307315
0.2897017 0.0057772198 1.7327484
0.27651504 0.005753275 1.7267832
0.26657358 0.0057977405 1.7414817
0.27177373 0.0061913719 1.8620211
0.26769617 0.0064023403 1.9272318
0.26157328 0.0065839528 1.9835477
0.25075862 0.0066610342 2.008111
0.23694786 0.0066628987 2.0097747
0.22192219 0.0066287071 2.0004101
0.20806161 0.006627087 2.0008826
0.19669697 0.0067103868 2.0271399
0.18186618 0.0066791363 2.0184741
0.16847886 0.0067001134 2.0256474
0.15402086 0.0066784536 2.0197694
0.14006265 0.0066763153 2.0197752
0.12611133 0.0066740708 2.0196855
0.11216755 0.0066717188 2.0195003
0.098183766 0.0066659846 2.0182204
0.084388137 0.0066732401 2.0208411
0.070457391 0.0066705653 2.0203705
0.056536872 0.0066677821 2.019804
0.042543463 0.0066517908 2.0151436
0.028743345 0.0066651679 2.0193861
0.014646306 0.0065703527 1.9905359
0.00089272746 0.0061216853 1.8535895
-0.0097156828 0.0050145723 1.5155609
-0.020083163 0.004994805 1.5094596
-0.030407773 0.004981508 1.5052879
-0.040703155 0.0049714074 1.502046
-0.051090166 0.0049743261 1.5027323
-0.061407443 0.0049706162 1.5013492
-0.071566306 0.004957004 1.4968994
-0.081937604 0.0049596839 1.4973744
-0.0921968 0.0049557374 1.4957821
-0.10264104 0.0049615307 1.4971132
-0.11288404 0.0049574263 1.4953804
-0.12383983 0.0049826894 1.5025486
-0.13375305 0.0049653407 1.4966878
-0.14444605 0.0049773534 1.4997219
-0.15366106 0.0049402392 1.4877583
-0.16510603 0.0049749771 1.4976101
-0.17519397 0.0049671363 1.4944617
-0.18597871 0.0049788253 1.4972016
-0.196036 0.0049708332 1.493914
-0.20605706 0.0049627693 1.4905601
-0.21732225 0.0049840095 1.496048
-0.22777735 0.0049855821 1.495519
-0.23839118 0.0049903393 1.4959058
-0.24934594 0.0050015375 1.4981909
-0.26000446 0.0050061331 1.4984256
-0.27014983 0.0050008767 1.4956324
-0.28063482 0.0050020628 1.4947375
-0.29112032 0.0050031734 1.4937695
-0.30180204 0.0050074616 1.4937093
-0.31269956 0.0050149253 1.494553
-0.32341346 0.0050190566 1.4943397
-0.33392343 0.0050198636 1.4930745
-0.34487718 0.0050270897 1.4936854
-0.35654369 0.0050439741 1.4971367
-0.36496896 0.0050153509 1.4868944
-0.37885401 0.0050612595 1.4989201
-0.38793454 0.0050422354 1.4914567
-0.40025887 0.0050652637 1.496507
-0.41109604 0.0050687729 1.4956691
-0.42678532 0.0051304339 1.5120894
-0.53231031 0.0062426231 1.8407702
-0.58307451 0.0066748746 1.9666029
-0.59746486 0.0066802911 1.9654462
-0.60802954 0.0066436608 1.9517645
-0.61119395 0.0065295999 1.9151503
-0.61450577 0.006422047 1.8804878
-0.62241238 0.0063660732 1.8610569
-0.6766746 0.0067766705 1.9789172
-0.69652313 0.0068328874 1.9921941
-0.71157414 0.0068407315 1.9911534
-0.71847057 0.0067714122 1.9674351
-0.74173999 0.006856103 1.9887317
-0.75296485 0.0068283654 1.9770602
-0.77738476 0.006919099 1.9998482
-0.78420752 0.0068527572 1.9767979
-0.7948544 0.0068216077 1.9639556
-0.82204223 0.0069310162 1.9917768
-0.84040433 0.0069635175 1.9971687
-0.84204233 0.0068586944 1.9628359
-0.87071258 0.0069738808 1.9918755
-0.88284683 0.0069550159 1.9821956
-0.90187263 0.0069901757 1.9879435
-0.90351999 0.0068916623 1.9553429
-0.92972374 0.0069806064 1.9762746
-0.95325786 0.0070470758 1.9906136
-0.96832955 0.0070499172 1.986715
-0.97633249 0.0070019797 1.9683456
-0.98950714 0.0069919969 1.9606888
-1.0157902 0.0070735868 1.9787824
-1.0437541 0.007164381 1.9992679
-1.0799768 0.0073085031 2.0344989
-1.0827409 0.0072253421 2.0058544
-1.0942544 0.0072020479 1.9939531
-1.1003332 0.0071440991 1.9723625
-1.122843 0.0071929535 1.9804133
-1.1445285 0.00723531 1.9865087
-1.1537986 0.0071991002 1.9707789
-1.1735847 0.0072285915 1.9730989
-1.1960335 0.0072735287 1.9795254
-1.2051084 0.0072370283 1.9635267
-1.2308561 0.0073003164 1.9747103
-1.2456508 0.0072978893 1.9678462
-1.2550359 0.0072642108 1.9524384
-1.2669896 0.007246024 1.9411906
-1.2815977 0.0072432677 1.9340472
-1.2917302 0.0072155744 1.920139
-1.3325812 0.007358138 1.9517169
1.395727 -0.0082408749 2.0103045
1.3754876 -0.0082146479 2.0108199
1.3853302 -0.0083695548 2.0560377
1.3500531 -0.008252305 2.0338452
1.3244077 -0.0081918398 2.0255229
1.3172567 -0.0082456898 2.0455906
1.278466 -0.008100383 2.0157225
1.2570155 -0.0080627147 2.0126145
1.2570324 -0.0081635211 2.0443017
1.2201084 -0.0080239363 2.0152235
1.2136886 -0.0080839563 2.036514
1.200497 -0.0080998428 2.0465744
1.1792746 -0.0080612497 2.0426648
1.1719217 -0.0081177 2.0629478
1.1517364 -0.008085588 2.0604889
1.138833 -0.0081044175 2.0710139
1.1050309 -0.0079729808 2.0426912
1.0884902 -0.0079641435 2.0458343
1.0645908 -0.007900442 2.0346448
1.0504524 -0.0079083834 2.0419252
1.0353726 -0.0079093678 2.047318
1.0158495 -0.0078759305 2.0436299
1.0029757 -0.0078938147 2.0532658
0.98486197 -0.0078703752 2.051986
0.96681875 -0.0078467745 2.0505528
0.93757135 -0.0077300505 2.0244348
0.93012553 -0.0077922102 2.0454073
0.91919988 -0.0078267762 2.059057
0.88978928 -0.0077024768 2.0304682
0.88711935 -0.0078093689 2.0631955
0.87439114 -0.0078298738 2.0729187
0.85663742 -0.0078053079 2.070538
0.82887638 -0.007687056 2.0429647
0.82026428 -0.0077453237 2.0625467
0.79735565 -0.0076682549 2.045732
0.77897286 -0.0076326281 2.0399215
0.76627898 -0.0076524438 2.048955
0.75042737 -0.0076408847 2.0494511
0.74265158 -0.0077127335 2.0724378
0.72178084 -0.0076487446 2.0585792
0.70597118 -0.00763684 2.058733
0.69019634 -0.0076248148 2.0587666
0.6781677 -0.007654551 2.0700927
0.65845072 -0.0075969035 2.0575233
0.63864374 -0.0075355759 2.0438266
0.62195408 -0.0075090379 2.0395272
0.60762042 -0.0075103589 2.0427685
0.58552921 -0.0074135242 2.0190017
0.57810402 -0.0075021801 2.0460608
0.56427884 -0.0075101955 2.0509245
0.54861808 -0.0074935583 2.0489302
0.53025961 -0.0074381824 2.0361679
0.51819313 -0.0074704429 2.0474982
0.49959877 -0.0074077519 2.0325282
0.48192525 -0.0073554362 2.0203207
0.46578506 -0.0073240651 2.0138154
0.44650096 -0.0072397618 1.9925424
0.42795071 -0.0071623134 1.9730575
0.38687086 -0.0066901133 1.843763
0.35545862 -0.0063583562 1.7532222
0.33767354 -0.006255406 1.726155
0.32725334 -0.0062863231 1.736282
0.31441075 -0.0062712939 1.7335526
0.30349317 -0.0062949955 1.7415693
0.29068252 -0.0062797689 1.7386659
0.27823922 -0.0062715029 1.7376455
0.2661235 -0.0062702047 1.7385142
0.25615776 -0.0063218451 1.7541443
0.26414686 -0.0068438253 1.9014738
0.2628707 -0.007167907 1.9934613
0.25407901 -0.0073115844 2.034904
0.23822607 -0.0072569922 2.0206983
0.22323525 -0.0072235013 2.012336
0.21124354 -0.0072890515 2.0317168
0.19765547 -0.0073049222 2.037092
0.1811536 -0.0072072945 2.0105038
0.16798523 -0.0072371019 2.019666
0.15500183 -0.007280984 2.0327303
0.14026858 -0.0072432226 2.0227664
0.12691534 -0.007276251 2.0326586
0.11227759 -0.0072346986 2.0214951
0.098762415 -0.0072639561 2.0302043
0.084677964 -0.007254085 2.0278335
0.070353597 -0.0072157141 2.0173702
0.056398008 -0.0072056022 2.0148041
0.042501558 -0.0071989219 2.0131421
0.028757459 -0.0072240583 2.0203841
0.014609795 -0.0071000531 1.9855341
0.00089320476 -0.0066352929 1.854588
-0.0097220279 -0.0054359348 1.5165595
-0.020056818 -0.0054038758 1.5074583
-0.030507725 -0.0054143071 1.5102853
-0.040837206 -0.0054033636 1.5070428
-0.051056515 -0.0053852391 1.5017314
-0.061326515 -0.0053776731 1.4993495
-0.071708091 -0.0053806617 1.4998946
-0.082045749 -0.0053800172 1.4993701
-0.092379458 -0.0053792871 1.4987751
-0.10304723 -0.0053961985 1.503098
-0.112884 -0.0053704791 1.495379
-0.12318928 -0.0053694923 1.4945735
-0.13322434 -0.0053577921 1.4907097
-0.14416128 -0.0053814375 1.496734
-0.15447459 -0.0053801951 1.4957153
-0.16467205 -0.005375328 1.4936323
-0.17565495 -0.0053951587 1.4984337
-0.18561254 -0.0053830431 1.4942225
-0.19539195 -0.0053673116 1.4889543
-0.20619254 -0.0053798039 1.4915494
-0.21675287 -0.0053851334 1.4920872
-0.227181 -0.0053868419 1.4915624
-0.23761205 -0.0053884671 1.4909652
-0.2495084 -0.0054217973 1.4991761
-0.25865018 -0.0053949985 1.4905399
-0.26926979 -0.0053999028 1.4907088
-0.28081745 -0.0054223626 1.4957192
-0.29112023 -0.0054200375 1.4937681
-0.30199805 -0.0054282085 1.4946886
-0.31229389 -0.0054257228 1.4925931
-0.32278502 -0.0054266811 1.4914051
-0.33262649 -0.0054169986 1.4872148
-0.34576818 -0.0054600188 1.4975832
-0.35585526 -0.005453689 1.4942153
-0.3673296 -0.0054683732 1.4966103
-0.37618423 -0.0054443264 1.4882475
-0.38918099 -0.0054799062 1.4962972
-0.39949098 -0.005476776 1.4936056
-0.41083339 -0.0054875966 1.4947028
-0.42759249 -0.0055684149 1.5149772
-0.5298292 -0.0067312382 1.8321172
-0.58448541 -0.0072485255 1.9713978
-0.59602076 -0.0072194044 1.9606575
-0.61452615 -0.0072741122 1.9727815
-0.61179745 -0.0070806327 1.9170552
-0.59970564 -0.0067895739 1.8348247
-0.67246979 -0.007451145 2.0119693
-0.68727756 -0.007456338 2.0101655
-0.69783401 -0.0074161366 1.9959711
-0.71257663 -0.0074211429 1.9939789
-0.72528374 -0.0074051712 1.9862367
-0.74451643 -0.0074551576 1.9962324
-0.76109511 -0.007477181 1.9985729
-0.77018642 -0.0074261944 1.9811864
-0.76845723 -0.0072746305 1.9367845
-0.79448158 -0.0073865196 1.9630259
-0.80991405 -0.0073977318 1.9621624
-0.83308285 -0.0074780006 1.979634
-0.85614139 -0.0075545721 1.9959577
-0.86792672 -0.007530774 1.9854518
-0.87759167 -0.0074896603 1.9703034
-0.89571494 -0.0075208964 1.9742639
-0.91518879 -0.0075622983 1.9807932
-0.91788 -0.0074658971 1.9509013
-0.94295675 -0.0075517432 1.9689349
-0.97486019 -0.0076888269 2.0002162
-0.98030645 -0.007616262 1.9764185
-0.99532735 -0.0076191258 1.9723108
-1.0180594 -0.0076800785 1.9832357
-1.0331736 -0.0076826424 1.9788439
-1.0328994 -0.0075723194 1.94514
-1.0633807 -0.007687401 1.9697111
-1.0779933 -0.0076861819 1.9640918
-1.1046916 -0.0077700028 1.9802344
-1.112546 -0.0077208132 1.9621092
-1.1216971 -0.0076818005 1.9465727
-1.1487751 -0.0077649755 1.96213
-1.1705346 -0.0078105293 1.9679297
-1.1790645 -0.0077677686 1.9512204
-1.2087488 -0.0078637023 1.969503
-1.2261219 -0.007878162 1.9670541
-1.2397995 -0.0078688152 1.958529
-1.2593373 -0.0078964382 1.9591812
-1.2680761 -0.0078564966 1.9428672
-1.2826959 -0.0078535033 1.9357162
-1.3200401 -0.0079880925 1.9625572
-1.3236072 -0.0079175401 1.9384685
1.383224 -0.023873014 1.9920772
1.3799601 -0.024090216 2.0173271
1.3575143 -0.023973716 2.0143645
1.3401303 -0.023944916 2.0187027
1.324388 -0.023945114 2.0254118
1.3059279 -0.023895591 2.0277855
1.2912315 -0.023914563 2.0359228
1.2675333 -0.023765225 2.0295036
1.256493 -0.023852447 2.0433376
1.2412062 -0.023860248 2.0502567
1.2274163 -0.023897387 2.0596423
1.2080262 -0.023825048 2.059427
1.1713026 -0.023404449 2.0286739
1.1478376 -0.023241106 2.0201583
1.1497788 -0.023594711 2.0568817
1.1191732 -0.023280961 2.0349183
1.1026495 -0.023255499 2.0381784
1.0912759 -0.023339471 2.0510318
1.061349 -0.023023369 2.0283263
1.0590769 -0.023306699 2.0587394
1.0340115 -0.023089385 2.0445299
1.0171618 -0.023051782 2.0462141
0.99685329 -0.022933466 2.0405629
0.98441732 -0.022995412 2.0509772
0.97104299 -0.023037029 2.0595038
0.94674498 -0.022816705 2.0443189
0.93257999 -0.022837421 2.050771
0.91391993 -0.022746937 2.0470669
0.89456195 -0.022635782 2.0413682
0.87768549 -0.02258472 2.0410178
0.86240572 -0.022573689 2.0442207
0.8528257 -0.022714082 2.061183
0.83484054 -0.022631623 2.0577025
0.81511164 -0.022498045 2.0494213
0.8081674 -0.022718919 2.073607
0.77825248 -0.022290209 2.0379491
0.76452756 -0.02231764 2.0441654
0.75178224 -0.022375306 2.0531075
0.73526746 -0.022320839 2.0516074
0.71946931 -0.022286348 2.0518661
0.70370501 -0.022251498 2.0520041
0.68102968 -0.021991991 2.0311494
0.66949868 -0.022088908 2.0433638
0.65238601 -0.022001883 2.0383608
0.63359833 -0.021853136 2.0274894
0.62513107 -0.022061696 2.0499544
0.60761112 -0.021953106 2.0426679
0.59298778 -0.021946425 2.0448475
0.58052516 -0.022021374 2.0546255
0.56506044 -0.021983368 2.0537179
0.54809588 -0.021883482 2.0468969
0.53025132 -0.021742122 2.0360682
0.5052731 -0.021292308 1.9959978
0.49722102 -0.021550456 2.0227149
0.47846225 -0.021346088 2.0056264
0.4595136 -0.021120632 1.9864284
0.42305139 -0.020051042 1.8870265
0.3850233 -0.01883599 1.7735387
0.36282575 -0.018340344 1.7281545
0.35052705 -0.018328177 1.7286286
0.33881021 -0.018346654 1.7319611
0.3274318 -0.018385496 1.7371808
0.31369796 -0.018289989 1.7295321
0.30348831 -0.018400531 1.741485
0.29018742 -0.018325051 1.7356225
0.27792126 -0.018311204 1.7355864
0.26596922 -0.018317735 1.7374415
0.25515079 -0.018406667 1.7471322
0.25895527 -0.019611923 1.8637398
0.26066077 -0.020776276 1.9765098
0.24792594 -0.020854827 1.9851881
0.23915184 -0.021295263 2.0285466
0.22334105 -0.021124939 2.0132337
0.20970045 -0.021150898 2.0166991
0.19755636 -0.021342224 2.0359986
0.1822194 -0.021191508 2.0223594
0.16765343 -0.0211129 2.0155826
0.15409376 -0.021158272 2.0206678
0.1404036 -0.021192957 2.0246642
0.12542887 -0.021020018 2.0086083
0.11194552 -0.021085113 2.0154076
0.098182119 -0.021108422 2.018122
0.084303901 -0.021110658 2.0187442
0.070283264 -0.021071082 2.015275
0.056424849 -0.021072634 2.0157073
0.04260559 -0.02109459 2.0180445
0.028601618 -0.021002123 2.0092893
0.014624155 -0.02077448 1.9874388
0.0008927125 -0.019384852 1.8534993
-0.0096837906 -0.015827224 1.5104872
-0.020043317 -0.01578537 1.5063859
-0.030607183 -0.015878091 1.5152117
-0.040970597 -0.0158461 1.5119684
-0.051122949 -0.015762009 1.5036583
-0.061446864 -0.015750257 1.5022749
-0.071848713 -0.015758993 1.5028191
-0.082098491 -0.015736375 1.5002967
-0.092256144 -0.015703142 1.4967068
-0.10284244 -0.015742214 1.5000328
-0.1132547 -0.015749933 1.5002929
-0.12318726 -0.015695244 1.4945019
-0.13383892 -0.015733546 1.4976104
-0.14425384 -0.015740518 1.4976575
-0.15457375 -0.01573688 1.4966381
-0.1651033 -0.015753703 1.4975365
-0.17530632 -0.015739223 1.4953815
-0.18560952 -0.015734851 1.4941503
-0.19616154 -0.015750922 1.494832
-0.20510468 -0.015642675 1.4835515
-0.21674937 -0.015740965 1.4920154
-0.22822079 -0.015818283 1.4984117
-0.23807561 -0.015781693 1.4938563
-0.24934188 -0.015837813 1.498117
-0.25915384 -0.015800765 1.4934242
-0.26908952 -0.015773822 1.4896524
-0.28063026 -0.015839478 1.4946634
-0.29092619 -0.015832685 1.4927138
-0.30297375 -0.015918396 1.4995188
-0.31208611 -0.015849315 1.4915411
-0.32424614 -0.015934469 1.4981767
-0.33348575 -0.015875269 1.4910474
-0.34353492 -0.015857032 1.4877621
-0.35401422 -0.015859136 1.486356
-0.36519921 -0.015891831 1.4877919
-0.37617832 -0.015913997 1.4881747
-0.38967356 -0.016038522 1.4981607
-0.40102026 -0.016070383 1.4993321
-0.41135204 -0.016060978 1.496559
-0.42624041 -0.016225498 1.5100873
-0.51907021 -0.019276451 1.7945402
-0.58108974 -0.021064982 1.959789
-0.6012094 -0.021286661 1.9777929
-0.61392611 -0.021242106 1.9707732
-0.62023896 -0.020982893 1.9436527
-0.63669574 -0.021070663 1.9488807
-0.66679269 -0.021596482 1.9947854
-0.68630326 -0.021764632 2.0072248
-0.69585681 -0.0216166 1.9902033
-0.71356839 -0.021722851 1.9967066
-0.72663546 -0.021686308 1.9898978
-0.74693483 -0.021862868 2.0026968
-0.75684178 -0.021734314 1.9872481
-0.7690953 -0.021676665 1.9782879
-0.7973814 -0.022064762 2.0101924
-0.80490363 -0.021874683 1.9889082
-0.82089269 -0.021917345 1.9888979
-0.83807969 -0.021989962 1.9915291
-0.85691202 -0.022102557 1.9976965
-0.85836321 -0.021770557 1.963334
-0.88606733 -0.022104377 1.9894091
-0.90103817 -0.022114893 1.9860162
-0.9147585 -0.02209487 1.9797823
-0.93732339 -0.022285763 1.9924804
-0.94980991 -0.02223484 1.9832834
-0.95830089 -0.022093348 1.9659058
-0.97940886 -0.022242617 1.9745214
-1.0060582 -0.02251149 1.9936665
-1.0175905 -0.022439208 1.9822412
-1.0400585 -0.022606689 1.9920582
-1.0445368 -0.022383939 1.9671547
-1.0676147 -0.02256042 1.9775403
-1.0722384 -0.022347445 1.95345
-1.1095183 -0.022811638 1.9888779
-1.1242971 -0.022806996 1.9829206
-1.128629 -0.022593342 1.9586217
-1.1507674 -0.022737071 1.9654834
-1.174075 -0.022899918 1.9738518
-1.1877881 -0.022873867 1.9656944
-1.1993688 -0.022807918 1.9540236
-1.2334675 -0.023166524 1.9788531
-1.2546735 -0.023277186 1.9821317
-1.2646955 -0.023180194 1.9675046
-1.2680572 -0.022964891 1.9427606
-1.2799301 -0.022906981 1.9314318
-1.2922654 -0.022858599 1.9208623
-1.3118095 -0.022937384 1.9209756
1.3985012 -0.040016107 2.0140874
1.3743026 -0.039775338 2.0088329
1.3569181 -0.03972847 2.0133131
1.33789 -0.039631814 2.0151427
1.3161837 -0.03945259 2.0126109
1.2789638 -0.038798422 1.9854428
1.293324 -0.039712112 2.0390878
1.2674959 -0.03939911 2.0292852
1.2522887 -0.039412562 2.0362911
1.2375649 -0.039441757 2.0440385
1.2248348 -0.039536059 2.05512
1.2049721 -0.039399587 2.054024
1.1747484 -0.038916294 2.0345318
1.1487864 -0.038563184 2.0216873
1.1317956 -0.038505763 2.024317
1.1220151 -0.038695429 2.0399709
1.1049824 -0.038636778 2.0423701
1.0893763 -0.038627062 2.0472817
1.0603963 -0.038136087 2.026341
1.0449497 -0.038124651 2.0309212
1.0317384 -0.038195647 2.0398512
1.0202291 -0.038332701 2.0522799
1.0046766 -0.038319688 2.0565474
0.98223841 -0.038039614 2.0462539
0.95109421 -0.037408371 2.016731
0.95089346 -0.037993476 2.0531955
0.92967314 -0.03774406 2.0441833
0.90984219 -0.037543796 2.0377183
0.90051788 -0.037777636 2.054915
0.87883729 -0.037492253 2.0435708
0.86122167 -0.037373442 2.0412478
0.84976178 -0.03752229 2.0535772
0.82771909 -0.037200816 2.0398748
0.81325173 -0.037214305 2.0445666
0.79876316 -0.037227314 2.0491552
0.78638017 -0.03734079 2.0592504
0.7617209 -0.0368645 2.0364633
0.7486859 -0.036943145 2.0444469
0.73356992 -0.036920194 2.0466945
0.72207707 -0.03708237 2.0592179
0.70497268 -0.036957122 2.055588
0.69363791 -0.037135448 2.0688977
0.6744262 -0.036890645 2.0583768
0.65357721 -0.036543436 2.0419729
0.63802224 -0.036483191 2.0416157
0.63090551 -0.036913861 2.0688937
0.60589373 -0.036293093 2.0367148
0.58688509 -0.036010437 2.0235097
0.57726735 -0.036304265 2.0428734
0.56188196 -0.036241133 2.041944
0.54345602 -0.0359734 2.0293047
0.52748251 -0.035857953 2.0252228
0.51524568 -0.035997164 2.0355635
0.49554661 -0.035608102 2.0157194
0.4549512 -0.033650592 1.9061911
0.41095436 -0.031315506 1.7747689
0.39091417 -0.030717259 1.7423949
0.3786996 -0.03071522 1.7440439
0.36383289 -0.030490782 1.7328825
0.3515012 -0.030470658 1.7333637
0.33898982 -0.030432969 1.7327763
0.32723778 -0.030463181 1.7360313
0.31492653 -0.030441655 1.7362547
0.30279785 -0.030436765 1.7373773
0.29034165 -0.030397177 1.7364427
0.27712867 -0.030271497 1.7304828
0.26611069 -0.030385055 1.7382641
0.25385332 -0.030361157 1.7380595
0.24666166 -0.030970939 1.7744179
0.2532571 -0.033466548 1.9198118
0.24804097 -0.034591176 1.9859916
0.2370525 -0.034995411 2.010478
0.223115 -0.034987506 2.0110543
0.20897518 -0.034944717 2.0095456
0.19524957 -0.034970034 2.0119195
0.18123384 -0.03494329 2.0112126
0.16789478 -0.035053384 2.0183809
0.15484333 -0.035248857 2.0304461
0.14074232 -0.035220478 2.0294597
0.12703283 -0.035294637 2.0343642
0.11232712 -0.035076089 2.0222049
0.098178923 -0.034994431 2.0179303
0.084218346 -0.034963761 2.0165551
0.070350148 -0.034966901 2.0170825
0.05650631 -0.034986675 2.0185146
0.042625144 -0.03498869 2.0188527
0.028671306 -0.034904175 2.0140975
0.014682085 -0.034578361 1.9952492
0.00089459389 -0.032205801 1.8573229
-0.0097152032 -0.02632501 1.5153428
-0.020055832 -0.026186842 1.5072428
-0.030406276 -0.026151434 1.5050713
-0.040996078 -0.026287522 1.5128243
-0.051087651 -0.02611373 1.502516
-0.061323505 -0.02605987 1.499135
-0.071846381 -0.026125921 1.5026762
-0.082095817 -0.026088422 1.5001539
-0.092618503 -0.026136426 1.5025524
-0.10263599 -0.026046563 1.4968973
-0.11287848 -0.026025016 1.4951649
-0.12383375 -0.026157642 1.5023319
-0.13401081 -0.026118081 1.4994596
-0.14415427 -0.026078125 1.4965193
-0.15456876 -0.02608927 1.4964955
-0.16498949 -0.0261 1.4963998
-0.17564642 -0.02614462 1.4982183
-0.18584763 -0.026120214 1.4959925
-0.19615529 -0.026112556 1.4946896
-0.2061826 -0.026070219 1.4913348
-0.21716939 -0.026147453 1.4948416
-0.22717008 -0.026104325 1.4913474
-0.23884706 -0.026249189 1.4986515
-0.24949645 -0.026273726 1.4989599
-0.25965342 -0.026246522 1.4962372
-0.27048889 -0.02628736 1.4973836
-0.28007331 -0.02620809 1.4915707
-0.29015943 -0.026179764 1.4886432
-0.30178764 -0.026287723 1.4934914
-0.31207636 -0.026275694 1.4913976
-0.32256031 -0.026280344 1.4902108
-0.332827 -0.026267556 1.487975
-0.34642029 -0.026510116 1.5002896
-0.35606804 -0.02644534 1.4949709
-0.36447969 -0.026295096 1.4847329
-0.376652 -0.026416974 1.48997
-0.38866434 -0.026521336 1.4941422
-0.39998424 -0.026574193 1.49532
-0.41081443 -0.026592631 1.4944838
-0.4273037 -0.026967291 1.5137919
-0.50968212 -0.03138034 1.7616876
-0.57401681 -0.034498464 1.9356179
-0.60176867 -0.035323903 1.9795144
-0.61863208 -0.03548716 1.9858645
-0.61871117 -0.034701761 1.938696
-0.65702552 -0.036048386 2.0114644
-0.66960585 -0.035955779 2.0031302
-0.68531877 -0.036031734 2.0041864
-0.70075238 -0.036090206 2.0041761
-0.71120769 -0.035895076 1.9899129
-0.72831702 -0.036036849 1.9944009
-0.7399711 -0.035908431 1.9837441
-0.75717276 -0.03604899 1.9879855
-0.7676329 -0.035869323 1.9743593
-0.7830736 -0.035924688 1.9737078
-0.79742724 -0.035929091 1.9701524
-0.81177306 -0.035933003 1.9664924
-0.84036678 -0.036556561 1.9968642
-0.85297048 -0.036475193 1.9882954
-0.86629653 -0.036426913 1.9814807
-0.88321185 -0.036528658 1.982806
-0.90183258 -0.036696516 1.9876376
-0.92223299 -0.036930308 1.9959406
-0.93814194 -0.036979742 1.994089
-0.94763625 -0.036778685 1.978565
-0.96698052 -0.036960229 1.9837058
-0.9798218 -0.036891494 1.9752153
-1.0042381 -0.037254184 1.989885
-1.0193762 -0.037267152 1.9855994
-1.0326684 -0.037213229 1.9776469
-1.0664126 -0.037887443 2.0085254
-1.060501 -0.037153613 1.9641135
-1.0889454 -0.037627023 1.9839776
-1.1051273 -0.037669655 1.980796
-1.1208322 -0.037695095 1.9766117
-1.1350479 -0.037670456 1.9696984
-1.1522405 -0.037743956 1.9678683
-1.1811562 -0.03819466 1.9856964
-1.180555 -0.03769156 1.9534793
-1.206615 -0.03804161 1.9657695
-1.213444 -0.037784196 1.9463278
-1.2562321 -0.038639095 1.9844579
-1.2625074 -0.038363859 1.9639198
-1.2739984 -0.038251784 1.951781
-1.3035123 -0.038677119 1.9671459
-1.3049937 -0.038270459 1.9397796
-1.2994323 -0.037668988 1.9025536
1.3678032 -0.054668602 1.9693031
1.3343678 -0.053944763 1.9497792
1.3535225 -0.055354886 2.0079975
1.3372806 -0.05533354 2.0139792
1.3210243 -0.055311069 2.0198312
1.3036777 -0.05524186 2.0238678
1.2852774 -0.055125777 2.0260682
1.2674401 -0.055031274 2.0289588
1.2522335 -0.055050064 2.0359645
1.2406005 -0.055228405 2.0488534
1.2212178 -0.055061907 2.0487697
1.1893234 -0.054319642 2.0269163
1.1846396 -0.05481698 2.0515575
1.1624876 -0.0545085 2.0457501
1.1501802 -0.054659519 2.0572164
1.13538 -0.054694597 2.0642204
1.1049341 -0.053966489 2.0420508
1.0921304 -0.054091681 2.0522668
1.0806262 -0.054285731 2.0650628
1.0640014 -0.054224439 2.0680013
1.0334877 -0.053443126 2.0431099
1.0095669 -0.052984528 2.0304475
0.99503565 -0.053012297 2.0364418
0.97746509 -0.052876506 2.0360131
0.96673399 -0.053112235 2.0499246
0.94709343 -0.052858189 2.0447078
0.93127775 -0.052812871 2.0475175
0.90939718 -0.052416492 2.0364954
0.90047842 -0.052766461 2.0546045
0.87762117 -0.052297678 2.0405045
0.8631146 -0.052318938 2.0455515
0.83566976 -0.05154293 2.0190532
0.83216447 -0.052242134 2.0506971
0.8154186 -0.05212041 2.0498402
0.79944927 -0.052044738 2.0507145
0.77287924 -0.051263098 2.023421
0.76377481 -0.051632132 2.0417843
0.74796945 -0.051553756 2.0422649
0.71778733 -0.050461542 2.0021229
0.71810079 -0.051512383 2.0475838
0.70622975 -0.051714726 2.0590708
0.68476689 -0.051208358 2.0420337
0.67068517 -0.051243968 2.0466661
0.65506119 -0.051160719 2.0464377
0.6442132 -0.051455151 2.0613682
0.62826991 -0.051346835 2.0599799
0.60331815 -0.050479636 2.0277889
0.58768803 -0.050369125 2.0260973
0.57913077 -0.050874434 2.049314
0.55606115 -0.050098125 2.0204308
0.53649694 -0.049605139 2.0029242
0.49442944 -0.046948753 1.8971666
0.48330978 -0.047165204 1.9082536
0.45168248 -0.045335643 1.8357519
0.41508043 -0.042884707 1.7376182
0.40109244 -0.042692594 1.7316406
0.39024478 -0.042833194 1.7392162
0.37426385 -0.042401277 1.7232689
0.36340848 -0.042540632 1.7306757
0.35049957 -0.042440917 1.728214
0.34011588 -0.042650763 1.7384161
0.32667145 -0.042478118 1.7328341
0.31561926 -0.042615224 1.7399416
0.30244309 -0.042465046 1.7351581
0.29065481 -0.042505365 1.7381669
0.276802 -0.042234167 1.7282606
0.265798 -0.042392761 1.7360389
0.25412768 -0.042455088 1.7397901
0.24296446 -0.042612564 1.7474253
0.24883389 -0.045930501 1.8858354
0.23991305 -0.046734545 1.9202286
0.23413618 -0.048281118 1.9853684
0.22124411 -0.04846165 1.9938749
0.20845193 -0.048689462 2.0042877
0.1948567 -0.048748765 2.0076528
0.18158132 -0.048903272 2.01491
0.169285 -0.049368903 2.0350316
0.15279852 -0.048586302 2.0032425
0.14066683 -0.049170498 2.0281744
0.12647004 -0.049082056 2.0250955
0.11243172 -0.049040817 2.0239143
0.098077707 -0.048830733 2.0156472
0.084338464 -0.048907936 2.0192659
0.070415884 -0.048888318 2.0187948
0.056531318 -0.048891921 2.0192277
0.042644013 -0.048894744 2.0195663
0.028754644 -0.048896771 2.0198097
0.014710572 -0.048393659 1.9989651
0.00089311739 -0.044911649 1.8540604
-0.0097147282 -0.036769655 1.5151273
-0.020028519 -0.036528647 1.5050293
-0.030484747 -0.036623273 1.5088552
-0.040752776 -0.036501173 1.5036151
-0.050849736 -0.036306471 1.4953085
-0.061522767 -0.036519378 1.5039163
