# .PCD v0.7 - Point Cloud Data file format
VERSION 0.7
FIELDS x y z
SIZE 4 4 4
TYPE F F F
COUNT 1 1 1
WIDTH 1505
HEIGHT 1
VIEWPOINT 0 0 0 1 0 0 0
POINTS 1505
DATA ascii
-0.53969085 0.99857074 1.9815474
-0.55997056 1.0080379 1.9977301
-0.57135314 1.001412 1.9816891
-0.57465297 0.98132372 1.9388
-0.60783637 1.011995 1.9968849
-0.63417059 1.030043 2.0296464
-0.63697737 1.0099274 1.9865659
-0.64785266 1.0032434 1.970117
-0.65737838 0.99482167 1.9502001
-0.68856722 1.0188282 1.9942268
-0.7028302 1.0172906 1.9877142
-0.72130525 1.021785 1.9929901
-0.73647678 1.02151 1.9887975
-0.75543743 1.0263945 1.9946319
-0.77452749 1.0312555 2.0003054
-0.77890015 1.0167148 1.9680128
-0.80367935 1.0288582 1.9877053
-0.81921035 1.028927 1.9837629
-0.84413999 1.0405791 2.0021992
-0.86123246 1.0423218 2.0012875
-0.86067766 1.0230262 1.9596636
-0.883044 1.0311747 1.9709907
-0.89368767 1.0255888 1.9557707
-0.91439623 1.0315471 1.9626575
-0.94026828 1.0430341 1.9799885
-0.9539246 1.0408157 1.9709785
-0.97346318 1.0449836 1.9740671
-0.9672761 1.021842 1.9251733
-0.98990524 1.02939 1.934557
-1.0318452 1.0564772 1.9807063
-1.0542939 1.0630889 1.987924
-1.0559604 1.0488608 1.9558278
-1.0567746 1.0342172 1.9230185
-1.0800072 1.0416203 1.9314889
-1.1029798 1.0485643 1.9389483
-1.1229657 1.0525134 1.9406891
-1.1288708 1.0433385 1.9179894
-1.154403 1.0523065 1.9288327
-1.181565 1.0624976 1.9417517
-1.2099322 1.0734859 1.9559425
-1.2198459 1.0680279 1.9398218
-1.2130603 1.048281 1.8976099
-1.2371807 1.0554059 1.904433
-1.2808675 1.0788304 1.9406492
-1.2834044 1.0674431 1.9135997
-1.3263048 1.089494 1.9468354
-1.3090738 1.0622144 1.8911811
-1.3279984 1.0645765 1.8888091
-1.3748094 1.088971 1.9256043
-1.3824077 1.0820965 1.9064806
-1.3334479 1.031626 1.8102202
-1.3904537 1.0633541 1.8594711
1.4501839 1.0782111 1.9119275
1.436834 1.0805546 1.9233228
1.3997179 1.0648719 1.9022135
1.4130393 1.0876433 1.9503232
1.3898851 1.0825466 1.9481063
1.2000229 0.94591928 1.706339
1.3438996 1.0722377 1.9430372
1.3486166 1.0892738 1.9809595
1.2928122 1.0572418 1.9287826
1.2802533 1.0602124 1.9407164
1.2853341 1.0780541 1.9801362
1.26894 1.0781133 1.9866685
1.2139938 1.0449891 1.9313042
1.2265537 1.0698647 1.9838599
1.2003258 1.0611224 1.973608
1.1965983 1.0723041 2.0006361
1.1599928 1.0539243 1.9719653
1.1275016 1.0388182 1.9492017
1.1114912 1.038682 1.9545864
1.0870912 1.0305884 1.9447556
1.0763767 1.0354216 1.9594144
1.0646468 1.0394078 1.9724246
1.0646226 1.0551156 2.0078731
1.0545434 1.0611881 2.0248742
1.0200336 1.0424818 1.9940904
1.0123532 1.0510368 2.0157239
0.97928864 1.0330887 1.9860138
0.95575553 1.0247728 1.9747577
0.94404382 1.029066 1.9878894
0.93295264 1.0341924 2.0026064
0.91158897 1.027912 1.9949795
0.91690558 1.0520234 2.0467908
0.88312417 1.0313355 2.0107195
0.86381227 1.0271006 2.0067823
0.83691561 1.0135238 1.9842974
0.82757974 1.0211028 2.0034471
0.80721384 1.0151021 1.995675
0.78999132 1.0128965 1.995309
0.77477014 1.0132205 1.9998769
0.75761575 1.0109779 1.9992529
0.7461375 1.0163738 2.0137832
0.72316509 1.0060092 1.99675
0.71637404 1.0181936 2.0247445
0.69776779 1.0137528 2.0193751
0.66779846 0.99222702 1.979545
0.66428882 1.0099288 2.0184927
0.64295459 1.000729 2.0032132
0.62831807 1.0017596 2.0084651
0.61154807 0.99935532 2.0066946
0.59126663 0.99094296 1.9926566
0.58068615 0.99877411 2.0114553
0.55846566 0.986467 1.9892963
0.54911774 0.9968459 2.0131569
0.5270496 0.98406649 1.9898077
0.52120554 1.0017183 2.0284028
0.51265603 1.0150808 2.058249
0.48392794 0.98807621 2.0055208
0.46966362 0.98981577 2.0114441
0.45316908 0.98681456 2.0075808
0.43885845 0.98852605 2.0132995
0.42504314 0.99151498 2.0215738
0.40864089 0.98846728 2.0173702
0.38255545 0.96086442 1.9625319
0.37988868 0.9922263 2.0290039
0.35298795 0.96026802 1.9649349
0.34511876 0.97955686 2.0064535
0.3370958 1.0001376 2.0506327
0.31470668 0.97802544 2.0065422
0.30118167 0.98262966 2.0175815
0.28487378 0.97816133 2.0097759
0.26988876 0.97799206 2.0107906
0.2533296 0.97176474 1.9991714
0.24024166 0.97890639 2.0151947
0.22663487 0.98474133 2.0284495
0.21089804 0.98149294 2.0227802
0.1934462 0.96915519 1.9981457
0.17939481 0.97322059 2.0075095
0.1615635 0.95566207 1.9718415
0.14812143 0.96315712 1.9881898
0.13127473 0.94772553 1.9567679
0.12075931 0.97984147 2.0242286
0.1051532 0.9738943 2.0124011
0.087923169 0.94846952 1.959929
0.072439492 0.93556982 1.9334534
0.060655922 0.97586006 2.0177145
0.045471158 0.96985424 2.005461
0.030729216 0.97205317 2.0102301
0.015849194 0.96991229 2.0058825
0.00104102 0.97381377 2.0140548
-0.013634203 0.95996422 1.9851609
-0.028472548 0.9660008 1.9976376
-0.043881766 0.98067474 2.0280383
-0.057843041 0.96375608 1.9925374
-0.07317546 0.9719125 2.0092087
-0.087698095 0.96837616 2.0014486
-0.10343862 0.97736794 2.0197053
-0.11908525 0.98331672 2.0315452
-0.13420387 0.98406148 2.032474
-0.14377056 0.94804591 1.9568543
-0.16255414 0.97383755 2.0097487
-0.17534991 0.96244019 1.9852227
-0.19137914 0.96918064 1.9983307
-0.20614031 0.96899253 1.9969639
-0.21843049 0.95799255 1.9730824
-0.23973228 0.98541558 2.0288627
-0.25360465 0.98086435 2.0182111
-0.26993486 0.98579657 2.0271463
-0.28354174 0.98078781 2.0154099
-0.29318455 0.96325749 1.9777048
-0.31014773 0.97030455 1.9907948
-0.32284409 0.96396863 1.9761401
-0.340022 0.97098291 1.9889919
-0.361186 0.98831838 2.0230327
-0.37614664 0.9879697 2.0204945
-0.3902387 0.98545432 2.0134208
-0.40407181 0.9824962 2.0053711
-0.41285515 0.96791112 1.9733682
-0.42993116 0.97310376 1.9819474
-0.44165626 0.96624291 1.9657155
-0.45702374 0.96753687 1.9661413
-0.46886331 0.96151489 1.9515207
-0.48440018 0.96321058 1.9526236
-0.50887316 0.98205185 1.9886316
-0.51789159 0.97084284 1.963223
-0.54067647 0.98534638 1.9901327
-0.55543184 0.98482752 1.9863518
-0.56941909 0.98300987 1.9798617
-0.57469356 0.96663076 1.9437916
-0.60633147 0.9943046 1.9968988
-0.62008363 0.99201268 1.9892067
-0.63840795 0.99697 1.9960772
-0.65127218 0.99336845 1.9855977
-0.66602284 0.99274242 1.9810479
-0.67343092 0.98144346 1.9549969
-0.68497628 0.97653484 1.9417536
-0.70277393 0.98055905 1.9463396
-0.73375964 1.0024323 1.9864646
-0.75425893 1.0093782 1.996595
-0.76944304 1.0090753 1.9921728
-0.7892288 1.0147007 1.9994453
-0.80782092 1.0186042 2.0031815
-0.8244583 1.0199419 2.0017326
-0.84146988 1.0216846 2.0009913
-0.8514173 1.0149428 1.9834458
-0.87776983 1.0276483 2.0040948
-0.89051718 1.0242591 1.9929944
-0.88671625 1.0022818 1.9454778
-0.91756827 1.0195549 1.9746919
-0.92537445 1.0110717 1.9535129
-0.95838737 1.0299559 1.9854997
-0.97243148 1.028174 1.9771789
-0.99812084 1.0385659 1.992329
-1.019991 1.0447211 1.9991275
-1.0416027 1.0504259 2.0049183
-1.0511212 1.043947 1.9871985
-1.0861114 1.0625815 2.0175109
-1.0981814 1.0585738 2.0043478
-1.1052784 1.0499585 1.9823776
-1.1121101 1.0413409 1.9604149
-1.1200316 1.0339725 1.9408286
-1.1359581 1.0340962 1.9353777
-1.1671555 1.0479275 1.9556292
-1.1841727 1.0488251 1.9513931
-1.1897919 1.0397381 1.9284016
-1.2109977 1.044332 1.9309343
-1.2211159 1.0393691 1.9155807
-1.2601125 1.0587986 1.945381
-1.288664 1.0690703 1.9579669
-1.2917858 1.0582526 1.9315504
-1.2894892 1.0433184 1.8976417
-1.3305225 1.0633788 1.927791
-1.3538549 1.0689789 1.9312797
-1.3457432 1.0499139 1.8898613
-1.387058 1.0694051 1.9183327
-1.4014713 1.0679431 1.9087248
-1.4250374 1.073409 1.9114985
1.4082992 1.0310792 1.8614424
1.4459536 1.070806 1.9410143
1.4227167 1.0658392 1.9390892
1.4081105 1.0672972 1.9488471
1.3902674 1.0663072 1.9540266
1.3786823 1.070151 1.9680756
1.3633466 1.0711416 1.9767904
1.3239555 1.0530241 1.9497797
1.3087718 1.0539479 1.958118
1.2980275 1.0585154 1.9732349
1.2861406 1.0622563 1.9867712
1.2589997 1.0533322 1.9763258
1.2325666 1.0447732 1.9663862
1.2363545 1.061944 2.0052235
1.1798832 1.0271213 1.9449471
1.1847795 1.0454987 1.9860319
1.1634374 1.0409108 1.9831529
1.1526204 1.0457431 1.9982814
1.1394078 1.0485088 2.0093918
1.0930123 1.020377 1.9606159
1.0783027 1.0214334 1.9681375
1.0695513 1.0282493 1.9868058
1.0271488 1.0024301 1.9417479
1.0422189 1.032769 2.0062757
1.0234915 1.0300412 2.0061343
1.0040153 1.0264612 2.0042076
0.97983652 1.0178809 1.9923013
0.96257365 1.0163214 1.9941133
0.93489218 1.0035267 1.9735614
0.92661327 1.0114784 1.9940249
0.91920882 1.0206748 2.0169599
0.90230322 1.0194588 2.0191164
0.86512226 0.994883 1.9744592
0.85964948 1.0065408 2.002135
0.84226459 1.0044243 2.0021627
0.8252728 1.0027058 2.002893
0.80156624 0.99260598 1.9866241
0.79107296 0.99879366 2.0031106
0.80737066 1.0397296 2.0899274
0.76534939 1.0057007 2.0248959
0.73183823 0.98167115 1.9798484
0.72783118 0.99703759 2.014761
0.69724959 0.97587717 1.9751985
0.69225883 0.99038947 2.0082984
0.66756642 0.9767344 1.9837681
0.65367401 0.97861403 1.9909152
0.64658195 0.99100566 2.0195832
0.62783659 0.98570508 2.0118659
0.6134333 0.98712713 2.017884
0.58773434 0.96997976 1.9855264
0.57151598 0.96798939 1.9843004
0.56700051 0.9862476 2.0248749
0.54821604 0.98001045 2.0147328
0.53627974 0.98600858 2.0298581
0.50359786 0.95309633 1.9641234
0.48710099 0.9497512 1.9596267
0.46901515 0.94300282 1.9479526
0.4686763 0.97265053 2.0120373
0.45082876 0.96672565 2.0019546
0.43621337 0.96756244 2.0058942
0.42193523 0.96923357 2.0115073
0.40831223 0.97258872 2.020577
0.38274312 0.94665426 1.9682114
0.37710965 0.96992546 2.0188708
0.35807467 0.95922959 1.9982392
0.34802642 0.97272408 2.0283189
0.32286876 0.94329762 1.9681184
0.31555781 0.96569383 2.0168016
0.29921484 0.96130413 2.0090721
0.27683991 0.93605864 1.9573022
0.27121523 0.96778971 2.0255435
0.25311708 0.95612127 2.0022156
0.24258888 0.97337478 2.0398521
0.22237061 0.95145714 1.9947008
0.20384914 0.93419999 1.9592776
0.19440497 0.95908445 2.0128672
0.17948373 0.95883286 2.0132513
0.16507992 0.96154958 2.0198445
0.15178755 0.97192287 2.0425816
0.13439544 0.95543754 2.0083692
0.12071285 0.96450633 2.0282059
0.10384998 0.94713563 1.9919447
0.089731462 0.95319378 2.0052598
0.074585997 0.94858104 1.9958822
0.05979798 0.94736481 1.9936317
0.045392137 0.95338309 2.0066528
0.030265342 0.94275868 1.9843028
0.015673056 0.94448566 1.9880785
0.0010364446 0.95472723 2.0098445
-0.014040636 0.97348315 2.0495994
-0.028307894 0.94574726 1.990662
-0.043554932 0.95850545 2.0175474
-0.058365207 0.957605 2.0153885
-0.073081322 0.95583832 2.0113206
-0.087584563 0.95235282 2.0035377
-0.10220735 0.95098549 2.000175
-0.11767715 0.95685017 2.0120654
-0.13338576 0.96312582 2.0247464
-0.14679308 0.95319414 2.003026
-0.16458462 0.97094381 2.0398424
-0.17472662 0.94437325 1.9827788
-0.19113202 0.95314717 2.000443
-0.20679401 0.9572202 2.0080798
-0.22090293 0.95404029 2.0003107
-0.23512056 0.9516995 1.9942476
-0.2507146 0.95487756 1.9997641
-0.26403704 0.94953191 1.9872223
-0.2821849 0.9611876 2.0104556
-0.29451123 0.9528392 1.9914483
-0.3109909 0.95808375 2.0010018
-0.32126853 0.94461441 1.9711094
-0.34003916 0.95620251 1.9938415
-0.35585165 0.9588514 1.9976915
-0.37206849 0.9623335 2.0032053
-0.38582706 0.95943415 1.9952575
-0.3987821 0.95482624 1.9836699
-0.41599771 0.96038425 1.9932891
-0.42843321 0.95490402 1.9797471
-0.44344744 0.95534557 1.9785142
-0.45907792 0.95704311 1.9798232
-0.47622058 0.96168816 1.9871868
-0.49349785 0.96631473 1.9944137
-0.49711251 0.94470435 1.9470392
-0.51700437 0.95437855 1.9646082
-0.54189092 0.97247779 1.9995059
-0.55716318 0.97281027 1.997465
-0.5729335 0.97397178 1.9970587
-0.59076744 0.97849178 2.0034976
-0.60481381 0.97666907 1.9967645
-0.60515761 0.95334876 1.9457425
-0.64640164 0.99403715 2.0262601
-0.65048563 0.97701633 1.9880949
-0.65977556 0.96841174 1.9671953
-0.67465228 0.9682079 1.9634466
-0.69459766 0.97512865 1.9741584
-0.71840525 0.98706096 1.9949502
-0.73788327 0.99267095 2.0027232
-0.75592768 0.99616224 2.0060754
-0.76628143 0.989582 1.9889225
-0.78799504 0.99764222 2.0013375
-0.80320066 0.99731135 1.9966794
-0.81220937 0.9894439 1.9767699
-0.83039922 0.99284518 1.9794884
-0.84156829 0.98788136 1.9653263
-0.86631584 0.99874926 1.9828023
-0.87666094 0.9929229 1.966777
-0.90476489 1.0070645 1.9904965
-0.91541016 1.001623 1.9750917
-0.93553203 1.0065595 1.9802321
-0.93970227 0.99445266 1.9515367
-0.96819401 1.0080599 1.9736137
-0.98008466 1.0042247 1.9611483
-1.0021048 1.010726 1.9689345
-1.0047257 0.99776244 1.9384588
-1.0293382 1.0066999 1.9508115
-1.0734663 1.0341717 1.9990963
-1.0844914 1.0294127 1.9843991
-1.09756 1.0267035 1.9736428
-1.0293256 0.94910508 1.8181585
-1.1310844 1.0282296 1.9653561
-1.1448696 1.0262922 1.9558936
-1.141416 1.0091664 1.9172857
-1.185824 1.0342478 1.9593856
-1.1985898 1.0314304 1.948009
-1.2083638 1.0261464 1.9319063
-1.2452347 1.0437117 1.9590125
-1.3032684 1.0783362 2.017998
-1.2805009 1.0460751 1.9507651
-1.2810018 1.0333917 1.9205281
-1.2959048 1.0324965 1.9123824
-1.2684885 0.99831742 1.8422382
-1.3125226 1.0205169 1.8770032
-1.3387077 1.0284747 1.8850909
-1.3405999 1.0178015 1.8586954
-1.4056196 1.0547465 1.9197325
-1.4178358 1.0516745 1.907052
1.4394538 1.0375444 1.9081806
1.3935273 1.015977 1.8751957
1.4241722 1.050383 1.9463831
1.402076 1.0462419 1.9457077
1.3811196 1.0428629 1.9463342
1.3816435 1.0558171 1.9776721
1.362653 1.0539931 1.9811081
1.3303956 1.0417356 1.9646114
1.3141243 1.041846 1.9714655
1.2848285 1.0315027 1.9582409
1.2637047 1.0275391 1.9570546
1.2670816 1.0436531 1.9944052
1.2357125 1.0311954 1.9766773
1.2246984 1.0356182 1.9914306
1.1928123 1.0222727 1.9716196
1.1589628 1.006856 1.9475338
1.1668669 1.0277883 1.9942652
1.1560066 1.0325497 2.0094435
1.1038216 1.0000085 1.951234
1.1236494 1.0327098 2.0212507
1.0749859 1.002499 1.9671298
1.0976442 1.0388916 2.0446744
1.0455019 1.0045174 1.9818218
1.0373689 1.0120207 2.0020084
1.0162362 1.006878 1.9969174
0.99929333 1.0057895 1.9998161
0.94401354 0.96545804 1.9238002
0.95719153 0.99496514 1.9879264
0.93810076 0.99135417 1.9854168
0.92024553 0.98894852 1.985231
0.91782522 1.003333 2.0189867
0.88064766 0.97956043 1.9752507
0.8684749 0.98324937 1.9871503
0.85296786 0.98322874 1.9914311
0.83990043 0.98607141 2.0014887
0.82879871 0.99137264 2.0165293
0.80366743 0.97977364 1.9968244
0.78915793 0.98092318 2.0031788
0.77557755 0.98329669 2.0119867
0.75393319 0.97533482 1.9993829
0.73783898 0.97437119 2.0011215
0.71930981 0.9700827 1.9958805
0.71501476 0.98522115 2.0308781
0.6961354 0.98048991 2.0245652
0.67508936 0.9724229 2.0111878
0.6641255 0.97884113 2.0279133
0.62381238 0.94127911 1.9526479
0.6101566 0.94309092 1.9595107
0.59722263 0.94613671 1.9688971
0.59518439 0.96704137 2.0157366
0.5800246 0.96716487 2.0189154
0.56533867 0.96810627 2.0237401
0.55203444 0.97153169 2.0337315
0.53539521 0.96911585 2.031328
0.50451082 0.94001603 1.9724065
0.49993011 0.95964819 2.016434
0.48166963 0.9534266 2.005681
0.46645465 0.95302689 2.0071766
0.45144323 0.95303023 2.0094512
0.43891153 0.95844877 2.0231676
0.42287955 0.95633751 2.0208004
0.40726382 0.95504647 2.0200965
0.38378379 0.93450695 1.9782476
0.37811911 0.95743924 2.0290699
0.35935768 0.94773686 2.0101571
0.34104666 0.93843269 1.9919854
0.33146498 0.95339358 2.0256541
0.31265229 0.94196343 2.0027564
0.28810012 0.91124046 1.938382
0.28490162 0.94837731 2.0194416
0.26979566 0.9477936 2.0195494
0.25414065 0.94509947 2.0150473
0.24387515 0.96336007 2.0555105
0.21769677 0.91701341 1.9569819
0.20552588 0.92727673 1.9800991
0.18827741 0.91444921 1.953451
0.1798096 0.94567651 2.0216012
0.16515961 0.94709432 2.0254993
0.14999664 0.94555986 2.0229626
0.13463995 0.94233143 2.0166974
0.11842212 0.93152881 1.9940165
0.10254283 0.92071003 1.9712156
0.089011297 0.93087947 1.9936286
0.07371565 0.9229725 1.9769595
0.059799533 0.9326967 1.9982783
0.044682395 0.92392176 1.979587
0.031060673 0.95252776 2.0415432
0.015701752 0.93154043 1.9963342
0.0010438922 0.9466747 2.0290596
-0.014127523 0.96431637 2.0671272
-0.028819578 0.94790971 2.0315914
-0.043071698 0.9331708 1.9995884
-0.057456929 0.92808276 1.9883567
-0.073279582 0.94356734 2.021467
-0.087783486 0.93971246 2.012753
-0.1025772 0.93962485 2.012099
-0.11663194 0.93364376 1.9986593
-0.13333215 0.94780785 2.028599
-0.14594388 0.9329825 1.9959499
-0.16307455 0.94711548 2.0256574
-0.17725502 0.94318098 2.0163479
-0.1901978 0.93377846 1.9951986
-0.2046836 0.93275774 1.9920353
-0.22130485 0.94095325 2.008626
-0.23312797 0.92899954 1.981807
-0.25228864 0.94597059 2.0170927
-0.26913604 0.95285863 2.0306096
-0.27707201 0.92913538 1.9783469
-0.295573 0.94144374 2.0033448
-0.30368304 0.92106068 1.9581816
-0.31954053 0.9249627 1.9650087
-0.33612001 0.93052328 1.9752982
-0.35428783 0.93983245 1.9935077
-0.3687984 0.93908244 1.9901265
-0.38293853 0.93748313 1.9848617
-0.39720023 0.93628937 1.9803941
-0.40130794 0.91210264 1.9268948
-0.42882925 0.94096369 1.9862746
-0.44346371 0.94056392 1.9832717
-0.45502928 0.93389136 1.9668814
-0.4768706 0.94806594 1.9946481
-0.4883312 0.94136846 1.9780698
-0.50135857 0.93799722 1.9684855
-0.51817 0.94169575 1.9737781
-0.53108245 0.93829989 1.964009
-0.54533422 0.93739015 1.9594215
-0.57445759 0.96141756 2.0072267
-0.58162898 0.9484154 1.9770207
-0.60119355 0.9557668 1.9895133
-0.62338394 0.96683151 2.0096607
-0.63658744 0.96376264 2.0001018
-0.65193009 0.96400011 1.9973882
-0.66440231 0.96007872 1.985926
-0.68055439 0.96153116 1.9855965
-0.71470505 0.98779625 2.036727
-0.710513 0.96107745 1.9777075
-0.72764915 0.96372139 1.9795914
-0.74262619 0.96345615 1.9753656
-0.76569784 0.97349286 1.9923102
-0.78542221 0.97896338 1.9996976
-0.79923218 0.97699326 1.9916755
-0.82532883 0.98983318 2.0139544
-0.83921647 0.98782617 2.0056682
-0.84022361 0.97100669 1.9670767
-0.85916793 0.97514719 1.9712539
-0.89073676 0.99321914 2.0036356
-0.89813352 0.98417938 1.9807831
-0.90296209 0.97268003 1.9529568
-0.95148933 1.0078516 2.0193844
-0.95904362 0.99918091 1.9970914
-0.96592444 0.99009991 1.973977
-0.98911166 0.99775642 1.9844192
-0.99320257 0.98621142 1.956315
-1.0244412 1.0015637 1.9818865
-1.0442764 1.0054705 1.9844542
-1.0479138 0.99389756 1.9561934
-1.0629295 0.99329859 1.9496862
-1.0809925 0.9955231 1.9486769
-1.0825752 0.98272377 1.9180064
-1.1308253 1.0120511 1.9700441
-1.1482762 1.0133821 1.9669073
-1.1634221 1.0126702 1.9596909
-1.1775837 1.0111325 1.9507973
-1.1978641 1.0148194 1.9519719
-1.2124453 1.0136445 1.9436277
-1.2294049 1.0144628 1.9390594
-1.2577063 1.0244988 1.9521053
-1.2777849 1.0276674 1.951803
-1.2817776 1.0179812 1.9268566
-1.2972049 1.0175037 1.919467
-1.2976273 1.0054119 1.8899963
-1.3138493 1.0057054 1.8839991
-1.3463919 1.0183363 1.9011427
-1.3579473 1.0149829 1.8880678
-1.3839111 1.0223516 1.8949996
-1.4192916 1.0364273 1.9142449
1.454676 1.031999 1.9337175
1.4369057 1.0310999 1.9392433
1.370564 0.99492091 1.8775572
1.4002742 1.028437 1.9483802
1.3920083 1.0345271 1.9670285
1.3704658 1.0307777 1.966761
1.357276 1.0332961 1.9784597
1.3091954 1.0089865 1.9381696
1.309849 1.0220977 1.9701812
1.2885865 1.0182229 1.9691761
1.2768046 1.0218363 1.9826852
1.2844415 1.0412859 2.0272255
1.2344941 1.0139503 1.9798605
1.2254033 1.0198908 1.9977652
1.1996163 1.0119081 1.9880937
1.1866093 1.0146346 1.9995133
1.1450001 0.99264067 1.9616485
1.1335131 0.99650913 1.9751077
1.1424917 1.0187367 2.0253079
1.120296 1.0134082 2.0203226
1.0760028 0.98764008 1.9740242
1.0595491 0.9870379 1.9781917
1.0452141 0.98842102 1.986293
1.0391793 0.99781668 2.0105972
1.0229564 0.99757022 2.0152905
0.9811489 0.97197062 1.9681597
0.95809031 0.96441895 1.9576114
0.92539883 0.94676477 1.9261903
0.93897289 0.97664446 1.9922303
0.91194206 0.96458679 1.9720693
0.89990413 0.96824545 1.9841704
0.88995552 0.9743197 2.0012259
0.86927712 0.9686541 1.993904
0.85018545 0.96458298 1.9897655
0.84347981 0.97467405 2.0150135
0.81784821 0.96286339 1.9945489
0.80102319 0.96116632 1.9950589
0.78224581 0.95701426 1.9903296
0.76781893 0.95812517 1.996539
0.7424835 0.94539165 1.9735516
0.7325635 0.95216501 1.9915012
0.71475053 0.94874901 1.9879092
0.70394582 0.95468932 2.004004
0.68647271 0.95164895 2.0010347
0.68232727 0.96736586 2.0377765
0.65628505 0.95204753 2.0085707
0.62878406 0.93383479 1.9730184
0.63221669 0.96179456 2.0357356
0.59409302 0.92635226 1.96314
0.59803057 0.95635909 2.0302377
0.57905525 0.95033824 2.0202701
0.56950092 0.95987099 2.0435514
0.55064303 0.95381701 2.0333316
0.53726423 0.95717913 2.043251
0.52019054 0.95396274 2.0389447
0.49560288 0.93635535 2.0035148
0.48548228 0.94583517 2.0263901
0.46115547 0.92735755 1.9888152
0.44987482 0.93475825 2.007066
0.43375975 0.93227768 2.0038741
0.42030585 0.9355436 2.0130553
0.40816966 0.94209248 2.0293012
0.39186737 0.93915898 2.024899
0.3769753 0.93950611 2.0275435
0.3552385 0.92211479 1.9915079
0.33907336 0.91830546 1.984918
0.32885274 0.93097979 2.0141768
0.30834535 0.91435295 1.9794778
0.29485905 0.91792709 1.9887568
0.2794908 0.91570979 1.9853209
0.26395044 0.91265213 1.9799684
0.25143811 0.92031956 1.9979986
0.23878415 0.92839056 2.0168605
0.22527146 0.9339723 2.0302169
0.20673728 0.9180488 1.9963871
0.19121668 0.91409487 1.9886924
0.17605948 0.91136694 1.9836073
0.16142674 0.91110605 1.9838588
0.14933355 0.92655021 2.0185134
0.1355436 0.93371177 2.0349317
0.11767522 0.91107166 1.9858261
0.10488398 0.92689568 2.0211322
0.089293607 0.91912127 2.0045218
0.074958406 0.92374796 2.0150914
0.059530623 0.91387582 1.9937171
0.044702876 0.90978402 1.9849747
0.030677631 0.92596114 2.0207295
0.016084719 0.93922818 2.0500183
0.0010184117 0.90901822 1.9836251
-0.01373994 0.92308658 2.0145319
-0.028232159 0.91396081 1.9943618
-0.043246914 0.922207 2.0123198
-0.057066835 0.90726084 1.9792141
-0.072726034 0.92168796 2.0106137
-0.087431602 0.92120159 2.0091541
-0.10248728 0.92401224 2.0148675
-0.11731611 0.92432654 2.0150223
-0.13203479 0.92379987 2.0132573
-0.14798358 0.9311192 2.0286448
-0.16286163 0.93097842 2.0275772
-0.17504807 0.91676468 1.9955672
-0.19071355 0.92156094 2.0051928
-0.2054233 0.92138165 2.0038321
-0.22111167 0.92532194 2.0114229
-0.23449935 0.91974384 1.9980937
-0.25072774 0.92530829 2.0090854
-0.26724809 0.93126947 2.0208564
-0.28207797 0.93102115 2.0189688
-0.29386738 0.9212662 1.9962498
-0.31335914 0.93543619 2.0256917
-0.32388556 0.9227711 1.9965047
-0.33703142 0.91834825 1.9852437
-0.35145271 0.91762495 1.9819787
-0.37044966 0.9284274 2.0037086
-0.3843129 0.92602658 1.9966344
-0.40040147 0.92896712 2.0010905
-0.41657722 0.93189204 2.0054257
-0.43150559 0.93192083 2.0033994
-0.44544336 0.92987978 1.9968189
-0.45849586 0.92618245 1.9865929
-0.47814441 0.93562371 2.0046778
-0.4885591 0.92697155 1.9836204
-0.51140082 0.94171315 2.0129201
-0.52001792 0.9301666 1.985515
-0.54099917 0.94076341 2.0056691
-0.55406779 0.93739939 1.9957343
-0.57622415 0.94918233 2.0181949
-0.58777118 0.94333279 2.0027838
-0.60174125 0.9415676 1.9960567
-0.62073725 0.94756085 2.0058134
-0.63524783 0.9465844 2.0006094
-0.64691162 0.94151044 1.9866213
-0.66299963 0.94295967 1.9864386
-0.67648214 0.94072127 1.9783529
-0.6937806 0.94377118 1.9813946
-0.71361083 0.9500618 1.9911808
-0.72519207 0.945337 1.9776175
-0.75636929 0.9658277 2.017076
-0.77614635 0.97123218 2.0246067
-0.76494968 0.93842643 1.9519098
-0.8006413 0.96329814 2.0000801
-0.82780606 0.97716469 2.0249841
-0.82949382 0.96100086 1.9871129
-0.84847564 0.96509659 1.9914299
-0.85452783 0.95460218 1.9653568
-0.88419217 0.97039044 1.9937156
-0.89933997 0.96997696 1.9883796
-0.91331768 0.96833682 1.9804395
-0.93496644 0.97474897 1.988993
-0.94618398 0.970254 1.9750285
-0.96004236 0.96856856 1.9667779
-0.98152953 0.97451073 1.9740363
-1.0031781 0.98042488 1.981097
-1.081304 1.0405031 2.098033
-1.0410274 0.9865523 1.9832437
-1.0587734 0.98837841 1.981647
-1.0661104 0.98057675 1.9605496
-1.0956914 0.99316412 1.9804307
-1.1260725 1.0061061 2.0008025
-1.1296384 0.99506283 1.973017
-1.1099145 0.96409661 1.905581
-1.1626788 0.99608088 1.9634897
-1.1782458 0.99576354 1.9569609
-1.1980669 0.99900204 1.9573785
-1.2155473 1.0002292 1.9537183
-1.2462131 1.0121331 1.9709172
-1.2446144 0.99786359 1.9366872
-1.2715427 1.0065373 1.9472966
-1.2865709 1.005692 1.939217
-1.2754958 0.98471481 1.8920738
-1.3082063 0.99764091 1.9105798
-1.311498 0.98809105 1.8855978
-1.3260971 0.98718631 1.8772432
-1.3529054 0.9952848 1.8860265
-1.3987707 1.017051 1.9206434
-1.3820736 0.99335051 1.8686507
1.4423424 1.0068719 1.9222649
1.4426925 1.0186831 1.9522532
1.4226861 1.0162281 1.9546765
1.415013 1.0226284 1.9742179
1.3933693 1.0189645 1.9741199
1.3686602 1.0129436 1.969276
1.3394361 1.0033938 1.9573343
1.3278724 1.0070015 1.9711425
1.2943989 0.9938761 1.9518003
1.2818121 0.9966588 1.963799
1.2676318 0.99825799 1.9733968
1.2406582 0.98969328 1.9626219
1.2612895 1.0193779 2.0283461
1.2284747 1.0060828 2.0079219
1.2054673 1.0005689 2.0029495
1.195182 1.0056082 2.0191805
1.1635584 0.99258471 1.9987375
1.159555 1.0030878 2.0259368
1.1345928 0.99550116 2.0162587
1.1239934 1.0004795 2.0321257
1.0944577 0.98850107 2.0131691
1.0609612 0.97253472 1.9857901
1.0444827 0.97192079 1.9898299
1.0146155 0.95863789 1.967576
1.0032797 0.96272272 1.981118
0.99505186 0.96996653 2.0011907
0.97858012 0.96927845 2.004725
0.95777732 0.96420753 1.9990145
0.94836736 0.97062802 2.0172379
0.92537665 0.96313113 2.0062294
0.89771706 0.95043308 1.9841253
0.88263297 0.95083719 1.9894468
0.88278627 0.9679634 2.0300281
0.85810083 0.95798153 2.013279
0.83616948 0.95076209 2.0022216
0.82134622 0.95150483 2.007952
0.80580956 0.95143414 2.0118752
0.79591203 0.95814914 2.030205
0.76883703 0.94404048 2.0039668
0.74666959 0.93550545 1.9894787
0.74011922 0.94658905 2.0169666
0.71846491 0.93841565 2.0030413
0.70126909 0.93583733 2.0010302
0.68944526 0.94047254 2.0144911
0.67544752 0.94228536 2.021805
0.6489833 0.92638725 1.9906996
0.6444965 0.9418503 2.0274272
0.63305253 0.94765216 2.0431943
0.61064672 0.93692458 2.0229592
0.59831011 0.94149238 2.0359025
0.56883186 0.91861802 1.9889203
0.55565113 0.92153853 1.9980813
0.54331702 0.92606407 2.0106952
0.53544044 0.93866205 2.0409429
0.51684785 0.93266237 2.0303903
0.49082518 0.91248667 1.9885947
0.48739463 0.93436307 2.0390813
0.46156853 0.91333234 1.9951507
0.45107019 0.92224127 2.0170214
0.43433985 0.91858333 2.0111346
0.41475978 0.90842307 1.990796
0.40300018 0.91527349 2.0079422
0.39187452 0.92414445 2.0295146
0.37731317 0.9252978 2.0339558
0.35412648 0.90451586 1.9897009
0.34699702 0.92472392 2.0362356
0.32593939 0.90796351 2.0006833
0.30917904 0.90215129 1.9893271
0.29406202 0.90079397 1.9877859
0.27974162 0.90186238 1.9915661
0.26550236 0.9033252 1.9961549
0.25222865 0.90843695 2.0088065
0.23485045 0.89848214 1.9878072
0.21868967 0.89217269 1.9748429
0.20552552 0.89806044 1.9890157
0.19130196 0.89986587 1.9940139
0.17605785 0.89677191 1.9879991
0.16391881 0.91036409 2.0191991
0.14706568 0.89787477 1.9920384
0.13253984 0.89840686 1.9939092
0.11922523 0.90829837 2.0166483
0.10235387 0.89005899 1.9763764
0.089172743 0.90318644 2.006223
0.074454419 0.90285182 2.005872
0.05866668 0.8861987 1.9689099
0.044661678 0.89439768 1.9875213
0.030101292 0.89402342 1.9868649
0.015630906 0.89812064 1.9961525
0.0010253625 0.90057415 2.0016885
-0.013635131 0.90138382 2.0034714
-0.028180784 0.8976962 1.9951104
-0.042605855 0.89399558 1.9866503
-0.058395009 0.91351765 2.0301213
-0.071582094 0.89267069 1.9831282
-0.087392323 0.90605044 2.0126939
-0.10166073 0.90189046 2.002923
-0.11663321 0.90423822 2.0076451
-0.13091069 0.9012754 2.0004148
-0.14620845 0.90522605 2.0085747
-0.16228391 0.91282839 2.0248182
-0.17417806 0.89760828 1.989987
-0.18968605 0.90192556 1.9987434
-0.2047777 0.90378559 2.0019345
-0.21458894 0.88365227 1.9559829
-0.23492084 0.90664989 2.0061791
-0.2459114 0.89300853 1.974597
-0.26025227 0.8923763 1.9719524
-0.28308234 0.91938204 2.0307479
-0.29755735 0.91790402 2.0260398
-0.30354065 0.8916235 1.9661413
-0.32403117 0.90841031 2.0018981
-0.33430418 0.89633763 1.9734863
-0.34497264 0.88628995 1.9495357
-0.36732569 0.9058637 1.991166
-0.38671064 0.9168905 2.0137298
-0.40093791 0.91532362 2.0083294
-0.41492459 0.9133392 2.0019393
-0.43227351 0.91863716 2.0115519
-0.444462 0.91298103 1.9969207
-0.45809177 0.91055548 1.9893547
-0.47310802 0.91095161 1.9879314
-0.48661336 0.90850252 1.9801817
-0.50248724 0.9104898 1.9821029
-0.53081524 0.93428344 2.0317185
-0.53534651 0.9160341 1.9891223
-0.56062621 0.93331426 2.0241997
-0.57898062 0.93845838 2.0326123
-0.56991345 0.90003288 1.9459676
-0.60751551 0.93538827 2.0200398
-0.62558401 0.93967521 2.0263011
-0.63801366 0.93548971 2.0140762
-0.66097552 0.94658226 2.0348933
-0.65928566 0.92266971 1.9798564
-0.66769379 0.91363931 1.9570411
-0.69650358 0.93231106 1.9939188
-0.70782042 0.92727047 1.9795638
-0.73553491 0.94347358 2.0107923
-0.75003469 0.94241023 2.004802
-0.76383865 0.9405328 1.9969987
-0.79049814 0.95424759 2.0224297
-0.79562336 0.94193959 1.9922029
-0.81858009 0.95080876 2.0070465
-0.82884401 0.94487906 1.9903196
-0.84318608 0.94372988 1.9836916
-0.85349035 0.93818325 1.9676992
-0.88388956 0.95453238 1.9978603
-0.88028818 0.93423301 1.9506633
-0.9088155 0.94814146 1.9754058
-0.92614049 0.95009375 1.9748886
-0.93249762 0.94091505 1.9510098
-0.9533338 0.94640666 1.9577289
-0.98486352 0.9621709 1.9856778
-0.99093246 0.95295686 1.9615649
-1.012987 0.95916289 1.969377
-1.0305529 0.96099478 1.9680157
-1.0520217 0.96635729 1.973822
-1.0649227 0.96380758 1.9632457
-1.0803757 0.96360803 1.9574298
-1.0899853 0.95827681 1.9410596
-1.0980533 0.95175976 1.9222574
-1.1431047 0.97703427 1.9679902
-1.1614476 0.97910047 1.9663695
-1.1807711 0.98192626 1.9661773
-1.1934797 0.97924912 1.9547997
-1.2109106 0.98046601 1.9511865
-1.2327485 0.98517317 1.9544581
-1.2492639 0.9855606 1.9489815
-1.2582655 0.98008567 1.9317749
-1.2883154 0.99093759 1.9468921
-1.2808186 0.97299796 1.9049654
-1.2944828 0.9713757 1.895296
-1.312252 0.97283554 1.8916149
-1.3442956 0.98471713 1.9081973
-1.3499622 0.97722459 1.8868288
-1.3672479 0.97821963 1.8819523
-1.3948827 0.98651087 1.8910888
1.4503682 0.99600631 1.9380698
1.4364462 0.99777502 1.9487709
1.4283867 1.0037043 1.9676415
1.4072789 1.0004964 1.9684025
1.3888813 0.9991619 1.9727683
1.3636813 0.99284279 1.9670845
1.3479669 0.99335974 1.9749324
1.3332326 0.99462092 1.9842049
1.3153913 0.99356663 1.9887446
1.2910384 0.98750484 1.9830569
1.2911165 1.0002142 2.0153208
1.2423085 0.97489065 1.9702049
1.2314969 0.97911048 1.9850456
1.2219676 0.98447591 2.002207
1.222641 0.99831694 2.0367777
1.1883577 0.98360318 2.0125632
1.1517363 0.96651888 1.983186
1.1337986 0.96485347 1.9854983
1.1262102 0.97207361 2.0061896
1.1033262 0.96610934 1.9993874
1.1024444 0.97951877 2.0329497
1.0640804 0.95952863 1.9965485
1.0462804 0.95775747 1.9981459
1.0142779 0.94273144 1.9717036
1.0149175 0.95804918 2.0091407
1.0081495 0.96674949 2.0326407
0.98587066 0.96061641 2.0246482
0.9499588 0.9407813 1.987341
0.9375664 0.94396573 1.9988726
0.93690842 0.9592725 2.0362825
0.92371899 0.96205491 2.046912
0.8985886 0.95228046 2.0305085
0.87047809 0.93894267 2.0062587
0.85028332 0.93381417 1.9995176
0.8319943 0.93062729 1.996848
0.81482828 0.92860025 1.9965831
0.79940826 0.92852342 2.0004551
0.79096317 0.93670362 2.022208
0.7652756 0.92438328 1.9992694
0.76333332 0.94082749 2.038959
0.73795015 0.92846322 2.015681
0.71325862 0.91646242 1.9930218
0.7067064 0.92775351 2.0213249
0.6915279 0.92797011 2.0252807
0.67460155 0.9257977 2.0238969
0.6444791 0.90499413 1.9813117
0.63183266 0.90832525 1.9918362
0.62176245 0.91561222 2.0110617
0.59882981 0.90384912 1.9880332
0.57960278 0.89721984 1.976247
0.57858449 0.91916966 2.0278726
0.55735868 0.90933526 2.0088048
0.5414241 0.90782738 2.0081608
0.52968329 0.91346592 2.0233822
0.50429773 0.89521372 1.9851691
0.48864454 0.89365655 1.9841349
0.47472537 0.89527255 1.9901255
0.46545652 0.90604478 2.0165849
0.44651091 0.89807057 2.0009336
0.43184638 0.89845443 2.0039544
0.41179118 0.8872509 1.9808319
0.40442792 0.90357602 2.0195835
0.39118713 0.90751815 2.0304172
0.37598974 0.90705478 2.0312519
0.34966648 0.87859702 1.9687885
0.34333768 0.9000895 2.0190434
0.33148181 0.90838343 2.039448
0.30527031 0.87625772 1.9683042
0.300697 0.90613639 2.0374503
0.28112495 0.8915804 2.0058823
0.26621565 0.89101958 2.0059459
0.25064281 0.88804203 2.0004494
0.23463233 0.88304698 1.9902898
0.22107993 0.88725388 2.000958
0.20719936 0.89064807 2.0097167
0.19121134 0.88480979 1.9974085
0.17757411 0.8897832 2.0096221
0.16369694 0.89434433 2.0208349
0.1481977 0.89006937 2.0118582
0.1330182 0.88698369 2.0055125
0.12034803 0.90193927 2.0402086
0.10441466 0.89321071 2.0208583
0.088929549 0.88607258 2.005053
0.074856848 0.89296705 2.0211735
0.059610005 0.88580191 2.0051575
0.045536619 0.8970865 2.0311551
0.030608818 0.89431024 2.0250061
0.015744185 0.88991523 2.0150907
0.0010337048 0.89313376 2.0224752
-0.013591667 0.88389593 2.0013664
-0.028705319 0.89953196 2.0369399
-0.042701956 0.88143808 1.9954852
-0.056334238 0.86694503 1.9621826
-0.072234407 0.88615334 2.0056837
-0.086328678 0.88046509 1.9923259
-0.10165885 0.88720441 2.0072358
-0.11594742 0.88430005 2.0000865
-0.13001968 0.88058114 1.9910139
-0.14587694 0.88848305 2.0083451
-0.16054313 0.88834846 2.0072935
-0.17504416 0.88739896 2.0043159
-0.18976822 0.88763976 2.0039761
-0.20431264 0.88706589 2.0017118
-0.22002213 0.89128852 2.010278
-0.23586738 0.89549643 2.0187283
-0.2508384 0.89608431 2.018877
-0.26190698 0.88344318 1.9889375
-0.27481127 0.87800246 1.9752883
-0.28766429 0.87295216 1.9624686
-0.30547047 0.88269722 1.9830918
-0.32185158 0.88762355 1.9927078
-0.3379347 0.89133412 1.9994859
-0.35207826 0.88983262 1.9944047
-0.36732033 0.89111656 1.9955417
-0.37934497 0.88479692 1.9794576
-0.40111375 0.90083027 2.0136759
-0.41510615 0.89887643 2.0072744
-0.43150949 0.90209806 2.0124414
-0.44465643 0.89852399 2.0022583
-0.46298051 0.90530431 2.0152438
-0.47415602 0.89811957 1.9968306
-0.48856008 0.89730078 1.9926263
-0.50270671 0.89607137 1.9874336
-0.52461886 0.90835816 2.0123451
-0.53463691 0.89993989 1.99095
-0.56063473 0.9181475 2.02881
-0.56728303 0.90454203 1.9957494
-0.58038259 0.90165782 1.9865013
-0.59416604 0.89995408 1.9798124
-0.61459506 0.90815318 1.9949805
-0.6306079 0.90959132 1.995073
-0.64693856 0.91141033 1.9959186
-0.65929228 0.90767133 1.9844285
-0.67239767 0.90511042 1.9754794
-0.69771934 0.91874737 2.0020406
-0.69587731 0.89679641 1.9504102
-0.73180526 0.92342126 2.005163
-0.7497409 0.92671841 2.0086756
-0.76516622 0.92684263 2.0051653
-0.76631844 0.91001254 1.964684
-0.79058331 0.92074871 1.9841301
-0.80863559 0.92398036 1.9871408
-0.82537532 0.92562026 1.986601
-0.85214072 0.93823916 2.0096643
-0.87239581 0.94336665 2.0163975
-0.88984549 0.94533378 2.0162101
-0.88482749 0.92377645 1.9654788
-0.91115457 0.93512017 1.9852668
-0.89984387 0.9081021 1.9229792
-0.94081467 0.93386632 1.9732834
-0.96178687 0.93926811 1.9799889
-0.96992433 0.93216312 1.960054
-0.98729694 0.93401712 1.959053
-1.0210088 0.95103377 1.9899241
-1.0174973 0.93338752 1.9476299
-1.0534084 0.95189208 1.9812802
-1.085947 0.96684933 2.0072227
-1.0800372 0.9476375 1.961628
-1.0972538 0.94897622 1.9589297
-1.1194822 0.95455074 1.9649236
-1.1322057 0.95197839 1.9539188
-1.1238785 0.93201935 1.907003
-1.1757365 0.96183622 1.9626169
-1.1907705 0.96113449 1.9552115
-1.2125225 0.96580225 1.9587111
-1.2324346 0.96890223 1.958878
-1.2484573 0.96890414 1.9526333
-1.2644538 0.96888596 1.946269
-1.2799168 0.96846449 1.9390132
-1.2943159 0.96725845 1.9301072
-1.3003716 0.95992291 1.9088529
-1.338091 0.97585607 1.9341077
-1.3207347 0.95172215 1.8793001
-1.3491244 0.96073288 1.8905067
-1.3664092 0.96171814 1.8856483
-1.3820552 0.96154028 1.8784109
1.4484413 0.97823644 1.9404119
1.3886108 0.94859982 1.8881541
1.4178354 0.97981709 1.9579476
1.413964 0.98862803 1.9828293
1.3960179 0.98769069 1.9879862
1.3780692 0.98672873 1.9930011
1.3590815 0.98499054 1.9963382
1.3390911 0.98247355 1.9979755
1.3120447 0.97465253 1.9885927
1.2821984 0.96452731 1.9742707
1.2491626 0.95171243 1.954168
1.24786 0.96305591 1.983971
1.2224528 0.95584983 1.975212
1.2149477 0.96263605 1.9955093
1.1958653 0.96030867 1.9967164
1.1852341 0.9647972 2.0121374
1.1633792 0.96014696 2.0082707
1.1525667 0.96460766 2.0235238
1.1240796 0.95419234 2.0072153
1.1153946 0.96052814 2.0263078
1.078512 0.94241071 1.9932719
1.0520949 0.93303418 1.9786267
1.0591174 0.95347816 2.0276935
1.0176946 0.9302671 1.9831208
1.0232536 0.94994742 2.0305912
0.99479598 0.93817133 2.0102732
0.97671819 0.93596256 2.0104558
0.95395571 0.92911887 2.0004776
0.94461191 0.93533415 2.0187483
0.91248125 0.91881478 1.9874433
0.90119088 0.92307281 2.0012872
0.88086331 0.91806114 1.9947952
0.88398308 0.9377442 2.0423644
0.85424799 0.92265618 2.0135739
0.82920462 0.91217119 1.9947063
0.81623036 0.91481787 2.0046608
0.8021403 0.91629171 2.0119643
0.77966768 0.90806025 1.9976846
0.76920807 0.91377074 2.0142226
0.74894154 0.90782654 2.0047934
0.73482323 0.90924257 2.0116453
0.73141748 0.92425567 2.0487967
0.70822412 0.91437322 2.0302882
0.67531157 0.89122558 1.9818959
0.66104233 0.89218974 1.9873782
0.65520048 0.90483701 2.0190589
0.64176136 0.9073441 2.0279171
0.61448556 0.88993436 1.991793
0.60908371 0.90412527 2.0268536
0.58215863 0.88627583 1.9894518
0.57007682 0.89067954 2.0022688
0.56247407 0.90250766 2.0318789
0.53928232 0.88928515 2.0045829
0.52667892 0.89326674 2.0162609
0.5060814 0.88352579 1.9966358
0.4886322 0.87885839 1.9884487
0.48613247 0.90162647 2.0427902
0.46196604 0.88438183 2.0057318
0.45126393 0.89262325 2.0268195
0.43452412 0.88907796 2.0208774
0.42067704 0.8914097 2.0283175
0.40155929 0.8823328 2.009511
0.38997579 0.88974923 2.0284772
0.3665354 0.8696261 1.9840809
0.36016044 0.89000189 2.0327272
0.33966687 0.87574291 2.0016093
0.3213976 0.8661862 1.9812032
0.31641784 0.89323848 2.045141
0.29949626 0.88759547 2.0336204
0.27618939 0.86144459 1.9746323
0.2640523 0.86916614 1.9937917
0.25210571 0.87845629 2.0165308
0.23568903 0.87235743 2.0036063
0.22237188 0.87768281 2.0170488
0.20737989 0.87668496 2.0157821
0.19172488 0.87251705 2.0070927
0.17716825 0.87307119 2.0092735
0.16148859 0.86769134 1.9976169
0.14692323 0.86782473 1.998675
0.1316891 0.86360186 1.9895486
0.11793466 0.86923856 2.0032423
0.10328513 0.86893928 2.0030837
0.088886231 0.87099743 2.0083311
0.074417084 0.87304324 2.0134809
0.059662037 0.87191623 2.0111864
0.045474414 0.88104856 2.0326691
0.030360539 0.87238926 2.0127225
0.015480729 0.86055571 1.9853219
0.0010290276 0.87439191 2.0175307
-0.013634424 0.87201577 2.0119755
-0.02819193 0.86883688 2.0044837
-0.042739231 0.86762077 2.0014846
-0.058602206 0.88693601 2.0461373
-0.070201881 0.84697908 1.9529581
-0.085734546 0.85994774 1.9827163
-0.10206968 0.87606126 2.0196977
-0.11678575 0.87596661 2.0189471
-0.13090383 0.87191027 2.0089273
-0.14455399 0.86586815 1.994233
-0.16017531 0.87165844 2.0069304
-0.17464261 0.87072432 2.0039506
-0.18607318 0.85596538 1.9688531
-0.20070209 0.85698199 1.9702696
-0.21724328 0.8654809 1.9889413
-0.23068586 0.86134309 1.9782718
-0.24656761 0.86626351 1.9884964
-0.26498684 0.87905276 2.0168276
-0.27492496 0.86384231 1.9803597
-0.28870657 0.86162907 1.9738746
-0.30656764 0.87122041 1.9945592
-0.32184097 0.87291837 1.9969419
-0.33792484 0.87657094 2.0037482
-0.35555023 0.8837496 2.0185831
-0.36978251 0.88225693 2.0133762
-0.38224545 0.87682068 1.9990412
-0.40128395 0.88631153 2.0189178
-0.41214556 0.87770927 1.9971899
-0.42997369 0.88402468 2.0095997
-0.44464695 0.88364857 2.0065928
-0.45930111 0.88325995 2.0034845
-0.47204062 0.87932903 1.992216
-0.48833245 0.88205332 1.9960705
-0.49688384 0.87104785 1.9685633
-0.51610374 0.87883925 1.9838034
-0.5339179 0.88386971 1.9926511
-0.55407614 0.89240319 2.0093412
-0.57700068 0.90482473 2.0347118
-0.58932656 0.90041471 2.0218444
-0.60333383 0.89873022 2.0150859
-0.61378479 0.89195991 1.9967879
-0.60750353 0.86177707 1.9257234
-0.64946938 0.89984715 2.0082917
-0.66302979 0.89772403 2.0002632
-0.67709899 0.8963688 1.9938942
-0.69862568 0.9047302 2.0092015
-0.71489102 0.90606689 2.0086734
-0.71741045 0.89028949 1.9698927
-0.76317108 0.92772162 2.0495996
-0.76485503 0.91114712 2.0089302
-0.77395862 0.90388882 1.9889787
-0.78552157 0.89972705 1.9758638
-0.79624838 0.8947829 1.9609787
-0.82855171 0.91381896 1.9989187
-0.84931582 0.91966707 2.007597
-0.85899448 0.91351682 1.9898034
-0.87991315 0.91932613 1.9981831
-0.90363193 0.92780989 2.0122721
-0.91386443 0.92239362 1.9958876
-0.92701161 0.92005092 1.9861633
-0.95228219 0.92962003 2.0022357
-0.96503735 0.92685968 1.9914328
-0.99149817 0.93714154 2.0087485
-0.98569906 0.91708714 1.9605122
-1.0047659 0.92042929 1.9626949
-1.0319823 0.93102235 1.9803039
-1.0491844 0.93239933 1.9780108
-1.0685923 0.93566722 1.9796532
-1.0796788 0.93165964 1.9657069
-1.0955507 0.93183702 1.9606019
-1.1168579 0.93656719 1.9650424
-1.1226468 0.92833364 1.9420117
-1.1584483 0.94480342 1.9709383
-1.1758616 0.94603348 1.9676367
-1.1856465 0.94117516 1.9515156
-1.2063787 0.9450205 1.9535111
-1.2218218 0.94467652 1.946677
-1.2392098 0.9458257 1.9428601
-1.2480923 0.94053632 1.9256618
-1.2780635 0.95107251 1.9410111
-1.3042282 0.95855057 1.94987
-1.3026214 0.94568437 1.9169774
-1.3074057 0.93771237 1.8941535
-1.3590217 0.96311945 1.9391036
-1.3616288 0.95360518 1.9129982
-1.4179596 0.98149937 1.9623322
-1.3926506 0.95289165 1.8977444
1.4497988 0.96269155 1.9471078
1.4123428 0.94859087 1.9254824
1.3888208 0.94363016 1.9223397
1.3954384 0.95927173 1.9615061
1.3888183 0.96607709 1.9825494
1.375137 0.96807534 1.9936365
1.357211 0.96709776 1.9984757
1.3346642 0.96276265 1.9962064
1.321871 0.96544302 2.0085037
1.289888 0.95399839 1.9910489
1.270641 0.95180082 1.9928695
1.2538893 0.95143956 1.9984671
1.2453647 0.95739353 2.0173879
1.2126821 0.94468695 1.9965621
1.2049748 0.95135587 2.0168812
1.1858213 0.94904661 2.0179672
1.1547232 0.93698084 1.9979779
1.147666 0.94435781 2.0196555
1.1223745 0.93672711 2.0089087
1.0853291 0.91892368 1.9759437
1.06677 0.91647875 1.9760598
1.0512905 0.91664636 1.9817587
1.0438725 0.92395443 2.0029776
1.0202605 0.91693312 1.9928144
1.0138081 0.92535514 2.0164011
1.0058453 0.93264371 2.0375032
0.97194737 0.91573203 2.0052035
0.944507 0.90445024 1.985094
0.93764746 0.91282874 2.0083742
0.92820311 0.91893214 2.0266035
0.91892225 0.92541033 2.0456481
0.88755113 0.90947944 2.0146554
0.8636086 0.90072834 1.9994868
0.85319102 0.9060216 2.0156379
0.83343571 0.90141153 2.0095112
0.81658435 0.89982766 2.0100739
0.79977232 0.8982271 2.0105045
0.78266728 0.89622837 2.0099416
0.76855838 0.89764923 2.0170236
0.76112354 0.90708184 2.0422125
0.72727925 0.88477826 1.9952785
0.72064716 0.89533561 2.0228939
0.70852685 0.89938468 2.0356722
0.68769884 0.89231491 2.0230031
0.65264982 0.86605322 1.9662865
0.65039092 0.88309419 2.0085418
0.64534593 0.89707232 2.0438132
0.63362139 0.90222019 2.0588045
0.60012293 0.87584704 2.0011778
0.58856338 0.88096213 2.0159001
0.57306719 0.88029867 2.0172367
0.54855633 0.86537832 1.9855274
0.53641605 0.86968702 1.9981703
0.52412355 0.87398773 2.0107453
0.50314355 0.86362892 1.9892424
0.49930099 0.88294905 2.0365796
0.47744676 0.87062955 2.0103307
0.46174467 0.86909658 2.0090666
0.44449884 0.8644594 2.0004807
0.43623954 0.87758142 2.0332549
0.416026 0.86673325 2.0100036
0.40172324 0.86785293 2.0146215
0.39272353 0.88095415 2.0472236
0.37497869 0.87470102 2.034451
0.36110574 0.87733549 2.0424242
0.33552644 0.85052395 1.9812087
0.31991798 0.84770298 1.9761813
0.31054476 0.86192024 2.011132
0.2908386 0.84744614 1.9785516
0.27794337 0.85234034 1.9914552
0.25193352 0.81533337 1.9055802
0.25186875 0.86287558 2.0188527
0.23386492 0.85105306 1.9921521
0.2215623 0.85978538 2.0138621
0.20727755 0.86152047 2.0189991
0.19214976 0.85974908 2.0157835
0.17443444 0.84514725 1.9821671
0.16067129 0.84878582 1.9915808
0.14811982 0.86018354 2.0192845
0.13379098 0.86263484 2.0257666
0.11803599 0.85535878 2.0091569
0.10398474 0.86011714 2.0209584
0.089124002 0.8586446 2.0179389
0.073672205 0.84977347 1.9973227
0.059307471 0.85216272 2.003304
0.044268515 0.84326506 1.9824753
0.030276539 0.8553493 2.0112872
0.015401557 0.84176075 1.9791993
0.0010322393 0.86237454 2.0280857
-0.013565766 0.85303783 2.0059309
-0.028267492 0.85651922 2.0140791
-0.042717535 0.85260099 2.0046237
-0.057241783 0.85178083 2.0024388
-0.071605854 0.84939343 1.9964718
-0.087069526 0.85865521 2.0180237
-0.10132834 0.85507667 2.009094
-0.11646449 0.85887045 2.0175483
-0.13095693 0.8575992 2.0139406
-0.1456677 0.85786986 2.0139112
-0.15936898 0.85268956 2.0009205
-0.17566405 0.86109251 2.0199749
-0.18571769 0.83996671 1.9691739
-0.20411117 0.85688597 2.0081942
-0.21703318 0.85010719 1.9911679
-0.23141223 0.84952837 1.9887136
-0.24588031 0.84932542 1.9870759
-0.26045665 0.84949827 1.9862529
-0.27842417 0.86012924 2.0099845
-0.29489926 0.86531401 2.0207946
-0.30891067 0.86311978 2.0141635
-0.32066339 0.85510236 1.9937848
-0.32970917 0.84088063 1.9587967
-0.3514179 0.85879308 1.9991728
-0.36729354 0.86158544 2.0039668
-0.37536666 0.84656549 1.966965
-0.38969362 0.84624153 1.964337
-0.42006788 0.87954062 2.0402205
-0.43684074 0.88304347 2.0463057
-0.44067696 0.86103541 1.9927987
-0.45274955 0.85602319 1.9789248
-0.4701252 0.86103737 1.988336
-0.49244159 0.87452132 2.017333
-0.50357133 0.86792964 1.9995726
-0.51907575 0.8690396 1.9996325
-0.53105974 0.86435783 1.9861985
-0.54822731 0.8681379 1.9922873
-0.56276804 0.86766875 1.9884633
-0.57958853 0.87064832 1.9925202
-0.59518778 0.87169003 1.9920191
-0.61511439 0.87886369 2.0055346
-0.63912427 0.89139014 2.0312135
-0.64889657 0.88393825 2.0109274
-0.66676348 0.88760144 2.0160565
-0.698578 0.90925539 2.0621881
-0.69531208 0.88530052 2.0040374
-0.71580839 0.89197683 2.0157466
-0.72867918 0.88907069 2.0055416
-0.74623841 0.89188689 2.0082657
-0.7645309 0.89544904 2.0125766
-0.77295929 0.88754493 1.9908587
-0.79736763 0.8979407 2.0104167
-0.81106955 0.89611465 2.0022843
-0.82118767 0.89047021 1.9855086
-0.83325171 0.88710284 1.9738117
-0.84810024 0.88676745 1.9688523
-0.86440289 0.88793761 1.9671786
-0.90290725 0.91147977 2.0152569
-0.9200021 0.91297686 2.0140173
-0.93208343 0.90953171 2.0017202
-0.94876915 0.91061902 1.9994065
-0.95866627 0.90526092 1.9827735
-0.97081333 0.90216374 1.9710959
-0.98614454 0.90207618 1.9659827
-0.99768758 0.89857948 1.9533211
-1.0231159 0.90750527 1.9677662
-1.0522572 0.91940844 1.9885193
-1.0695305 0.92074412 1.9860831
-1.0744312 0.91154414 1.9607108
-1.1041445 0.92335725 1.9807959
-1.1101176 0.91526401 1.9577433
-1.1383787 0.92551631 1.9741468
-1.1538818 0.92525721 1.9678127
-1.1679372 0.92385989 1.9589695
-1.1886193 0.92767191 1.9611639
-1.2069771 0.92959332 1.9592135
-1.2111673 0.92069507 1.9342468
-1.2551947 0.94191945 1.9729065
-1.268272 0.93967509 1.9618194
-1.2888589 0.94298089 1.9623245
-1.2910614 0.93292075 1.9347651
-1.3121086 0.93655699 1.9358031
-1.3175161 0.92907685 1.9136317
-1.2967107 0.90351069 1.8540688
-1.3730602 0.94544405 1.9339758
-1.3803338 0.93939167 1.9146066
-1.3917645 0.93627501 1.9012611
1.4677283 0.95793146 1.9762203
1.3955609 0.92129141 1.9070815
1.4128577 0.94354659 1.9606541
1.4095836 0.95242596 1.9863714
1.3831722 0.94569689 1.9792218
1.3453819 0.9309324 1.9548877
1.3553119 0.94923037 2.0004759
1.3363725 0.94751078 2.0035927
1.3220334 0.94905061 2.0135732
1.2920393 0.93924904 1.9991685
1.2697794 0.93489081 1.9962598
1.2599065 0.93965781 2.0129085
1.2401532 0.9370845 2.0136464
1.2223749 0.93595463 2.0174034
1.2036617 0.9340688 2.0194166
1.1765682 0.92553902 2.0068071
1.1700419 0.93317628 2.0294328
1.141369 0.92311662 2.0131829
1.0999526 0.90231597 1.9730555
1.1089063 0.92283094 2.0238926
1.0895859 0.92007345 2.0233278
1.0746549 0.92099553 2.0308228
1.0486013 0.91226888 2.016753
1.0408682 0.91945755 2.0380442
1.0076396 0.90399766 2.0086248
0.99080157 0.90298522 2.0113783
0.98161107 0.90902221 2.0299008
0.96231759 0.90574777 2.0274057
0.9438948 0.90319753 2.0264308
0.9270736 0.90211946 2.0286832
0.89556688 0.88646781 1.9977466
0.88014168 0.88646489 2.0021877
0.86652601 0.88831675 2.0107791
0.84817493 0.88529325 2.0081642
0.82850206 0.88075274 2.0019658
0.8124277 0.87993872 2.0041974
0.79772699 0.88060975 2.009757
0.78932768 0.88839948 2.0316463
0.76724082 0.88078707 2.017967
0.75213623 0.88104331 2.0223415
0.73355168 0.87714899 2.0170214
0.72186804 0.88151634 2.030767
0.71455479 0.89152616 2.0575883
0.68354678 0.87176114 2.0150595
0.66707599 0.87005973 2.014441
