# .PCD v0.7 - Point Cloud Data file format
VERSION 0.7
FIELDS x y z
SIZE 4 4 4
TYPE F F F
COUNT 1 1 1
WIDTH 1491
HEIGHT 1
VIEWPOINT 0 0 0 1 0 0 0
POINTS 1491
DATA ascii
0.11776602 0.26042572 1.5263306
0.10728211 0.26080105 1.5290653
0.096519865 0.26050788 1.5277926
0.085834965 0.26037675 1.5274301
0.075207599 0.26040772 1.5279795
0.064329438 0.25943741 1.5225452
0.053839471 0.25995871 1.5259041
0.043057535 0.25898007 1.5203211
0.032438416 0.25866213 1.518607
0.021901149 0.25900504 1.5207641
0.011357492 0.25984269 1.5258077
0.0007392072 0.25851503 1.5179604
-0.0098462431 0.25917828 1.5218737
-0.020551089 0.26066861 1.5306444
-0.030999159 0.25899634 1.520609
-0.041656885 0.25948101 1.5233186
-0.052252959 0.25946292 1.5229982
-0.06296736 0.25993943 1.5255616
-0.073343135 0.25908226 1.5201709
-0.084185906 0.25988284 1.5245576
-0.094910704 0.26018077 1.5259155
-0.10552341 0.26014233 1.525232
-0.11590869 0.25960153 1.5215257
-0.1259242 0.25839266 1.5138195
-0.13662831 0.25867453 1.5148888
-0.14858109 0.26111022 1.5286447
-0.15840177 0.25972378 1.5197473
-0.16940264 0.26032495 1.5225513
-0.18044966 0.26092193 1.5252773
-0.19093502 0.26068541 1.5230312
-0.20152625 0.26061085 1.5216924
-0.21183838 0.26020092 1.5183275
-0.22239715 0.26011863 1.5168458
-0.23324251 0.26036379 1.5172423
-0.24472442 0.2612671 1.5214581
-0.25643748 0.2623314 1.5265621
-0.26637933 0.26157108 1.5208889
-0.27730668 0.26179975 1.5209759
-0.29006678 0.26367754 1.5306789
-0.33992687 0.29793808 1.7300203
-0.40191582 0.34009334 1.9751478
-0.42329261 0.34621465 2.0090427
-0.43869251 0.34720963 2.0128529
-0.45373562 0.34786874 2.0146227
-0.46926853 0.34885195 2.0182042
-0.48213279 0.34785178 2.010154
-0.4953796 0.34717703 2.0039392
-0.50904834 0.34682733 1.9995517
-0.52665251 0.34910518 2.0103459
-0.53500497 0.34529194 1.9857353
-0.56421286 0.35478893 2.0381508
-0.56979281 0.34932455 2.0038669
-0.58261293 0.34845755 1.9961339
-0.59479374 0.34725857 1.9864293
-0.61635751 0.35146597 2.0077934
-0.63324893 0.35287809 2.0129466
-0.63281512 0.34478778 1.9634638
-0.6403265 0.34128445 1.9403358
-0.67764121 0.35347664 2.0069997
-0.69639617 0.35568076 2.0163119
-0.70878839 0.35461155 2.0068398
-0.73373115 0.35973844 2.0325873
-0.74278641 0.35702756 2.0136144
-0.75161821 0.3543157 1.9946138
-0.77500874 0.35843971 2.0143013
-0.79297769 0.35994983 2.0190511
-0.80667722 0.35950229 2.0126469
-0.82441133 0.3608366 2.016207
-0.84525621 0.3634617 2.026912
-0.86015457 0.36348322 2.0228782
-0.87348205 0.36285156 2.0151091
-0.88952136 0.36334866 2.0135787
-0.90880591 0.36513332 2.0191302
-0.93516314 0.369656 2.0397811
-0.94193727 0.36641705 2.0171828
-0.95602882 0.36608145 2.010654
-0.9717893 0.3663854 2.0075841
-0.98539037 0.36587834 1.9999579
-1.0042137 0.36729646 2.0028429
-1.0262501 0.36983079 2.0117264
-1.0367131 0.36818135 1.997584
-1.0598588 0.37101883 2.0078747
-1.0683514 0.3687191 1.9900614
-1.0921675 0.37169838 2.0008688
-1.0966666 0.36811191 1.9759876
-1.1216121 0.37139273 1.9881793
-1.1379973 0.37178937 1.9846739
-1.1548867 0.37233809 1.9818906
-1.179299 0.37526637 1.9917356
-1.1770875 0.36975625 1.9564065
-1.191852 0.36965084 1.9499069
-1.2376577 0.37905496 1.9937345
-1.2495712 0.37797487 1.9817735
-1.2698544 0.37942195 1.9830776
-1.2977148 0.3830708 1.9958109
-1.2965953 0.37818015 1.9636494
-1.3120472 0.37818107 1.9570887
-1.322499 0.37675756 1.9430429
-1.3428711 0.37816048 1.943609
1.4041489 0.37435475 2.0004001
1.3838663 0.37318465 2.0011127
1.3841293 0.37759218 2.0319421
1.3511553 0.37292972 2.0135059
1.3532076 0.37793887 2.0476096
1.3060422 0.36915705 2.006283
1.2892355 0.36884674 2.0111053
1.2755769 0.36944064 2.0208168
1.2530286 0.36744246 2.016134
1.232151 0.36588985 2.0137708
1.2311472 0.37027457 2.0442984
1.2132435 0.36962453 2.0467978
1.204778 0.37187049 2.0653961
1.1696992 0.36585242 2.0376067
1.1626151 0.36854607 2.0585663
1.1376439 0.36556566 2.0475066
1.1034654 0.35950291 2.0188286
1.1055603 0.36525342 2.0569065
1.0810186 0.36224231 2.0452321
1.0435631 0.35475409 2.0078506
1.0495803 0.36204129 2.0546505
1.0254759 0.35900068 2.0423775
1.021152 0.36289772 2.0697987
0.99979556 0.36076844 2.0625346
0.97268397 0.35646361 2.0425687
0.96004617 0.35741064 2.0527956
0.92601168 0.35029414 2.0161994
0.91150111 0.35045108 2.0216153
0.90173155 0.35246646 2.03778
0.87732065 0.34873015 2.020339
0.86704767 0.35058174 2.0354137
0.85774744 0.35289842 2.0531795
0.83113325 0.34804726 2.0288205
0.81843293 0.34895238 2.0381444
0.79917926 0.34704515 2.030828
0.79171824 0.3502835 2.0537865
0.76699871 0.34586388 2.0314171
0.75317627 0.34628123 2.0375516
0.73730665 0.34575525 2.0380151
0.72081554 0.34491035 2.0364935
0.70374209 0.34374589 2.032974
0.69493037 0.34665325 2.0536585
0.67447442 0.34375215 2.0395985
0.65816814 0.34288418 2.0375819
0.64074463 0.34138158 2.0316684
0.62632173 0.341445 2.0350578
0.60709143 0.33882833 2.0222566
0.59936303 0.34266001 2.0481708
0.57732546 0.33829805 2.0246637
0.55905318 0.33597571 2.013329
0.54940718 0.33885166 2.0333157
0.53477907 0.33872718 2.0351102
0.51360363 0.33433366 2.010957
0.49491215 0.33135268 1.9952408
0.48495093 0.33421335 2.0149004
0.46583232 0.33074519 1.9960395
0.45283386 0.33154163 2.003027
0.42907718 0.32425922 1.9607205
0.41688055 0.32551903 1.9703677
0.39907849 0.32233799 1.9528456
0.38400227 0.32121035 1.9477713
0.36480981 0.31642908 1.9202681
0.33262545 0.29957986 1.8187637
0.28253549 0.26461649 1.6060315
0.25915918 0.25280675 1.5348868
0.24848258 0.25289866 1.5366188
0.23764533 0.25282797 1.5373019
0.22624005 0.25211757 1.5340024
0.21557124 0.25219798 1.5355098
0.20372981 0.25084305 1.5281353
0.19469413 0.2529839 1.5422242
0.18235016 0.25082499 1.5297897
0.17160305 0.25073057 1.5300162
0.1611681 0.25110999 1.5331144
0.14955336 0.24957451 1.5243517
0.13877626 0.2493089 1.5233694
0.12826549 0.24951732 1.5252638
0.11766002 0.24956259 1.5261028
0.10739083 0.25040093 1.5317935
0.096433043 0.24964151 1.5275632
0.085757703 0.24951567 1.527199
0.075139932 0.24954541 1.5277481
0.064230017 0.24845491 1.52132
0.05375649 0.24895516 1.524682
0.043156728 0.24897306 1.5250125
0.032408953 0.24787053 1.5183619
0.021923486 0.24867813 1.5234826
0.011361782 0.24932234 1.5275445
0.00074233982 0.24900557 1.5256116
-0.0098752351 0.24932292 1.5275548
-0.020427734 0.24851969 1.5225154
-0.030971056 0.24819121 1.5203663
-0.041645918 0.24881579 1.5240662
-0.052105244 0.24816048 1.5197995
-0.062749453 0.24845821 1.5213808
-0.073276661 0.24827361 1.5199306
-0.083894536 0.24840403 1.5203801
-0.09506771 0.24996527 1.5296253
-0.1047542 0.24769673 1.5151519
-0.11647156 0.25020605 1.5301521
-0.12605245 0.24808985 1.5165305
-0.13650413 0.2478822 1.5146512
-0.14788082 0.2492636 1.5225284
-0.15846106 0.24920738 1.5214834
-0.16903394 0.24914734 1.5203663
-0.17971374 0.24924272 1.5201576
-0.19064169 0.24965239 1.5218346
-0.20096008 0.24926271 1.51854
-0.21178219 0.24950558 1.5190889
-0.22247975 0.24958549 1.5185848
-0.23392271 0.25045624 1.5228872
-0.24481499 0.25068718 1.5232052
-0.25539926 0.25059652 1.5214982
-0.26647758 0.25097847 1.5226378
-0.27723351 0.25103906 1.5217546
-0.28962758 0.25252345 1.5295309
-0.36721036 0.3087039 1.871573
-0.40889746 0.33186701 2.0112977
-0.4230434 0.3318764 2.0094254
-0.4380182 0.33251435 2.0113153
-0.44400066 0.32649973 1.9726218
-0.45745897 0.32618091 1.968581
-0.48002282 0.33218202 2.0028751
-0.49979037 0.33595988 2.0235252
-0.51503259 0.33657014 2.0248508
-0.52262163 0.33228153 1.9964353
-0.53902018 0.33367243 2.0023572
-0.55186689 0.33284962 1.9948174
-0.5729447 0.33690813 2.0166612
-0.58584094 0.33607489 2.0089023
-0.60203236 0.3371267 2.012423
-0.61600178 0.33691409 2.0082588
-0.62700379 0.33512521 1.9945704
-0.63303953 0.33082065 1.9657751
-0.6485371 0.33154044 1.9670289
-0.67788064 0.33915702 2.0093703
-0.69408172 0.34001756 2.0112226
-0.71850497 0.3447884 2.0362513
-0.71801114 0.33765075 1.9903668
-0.74406499 0.3430326 2.0187938
-0.76156098 0.34433761 2.0228996
-0.77211112 0.34251222 2.0084031
-0.79361326 0.34552273 2.0223899
-0.79966247 0.34181827 1.9967042
-0.82321405 0.34559393 2.0149715
-0.84253073 0.34749031 2.0220537
-0.85162652 0.34517857 2.0043883
-0.8722254 0.34752849 2.013921
-0.90687388 0.35530454 2.054934
-0.90912127 0.35033926 2.0215893
-0.92444801 0.35049316 2.0179894
-0.93977314 0.35064158 2.0142732
-0.95425349 0.35047513 2.0086536
-0.97127086 0.35123122 2.0082734
-0.98703271 0.35151723 2.0050895
-1.005881 0.35287744 2.0079761
-1.0315109 0.35654178 2.0239215
-1.0370723 0.35326365 2.0000706
-1.0634334 0.35706303 2.0165093
-1.0524729 0.34840077 1.9620241
-1.0916061 0.35633135 2.0016439
-1.096095 0.35289061 1.9767457
-1.1220021 0.35634539 1.9906923
-1.140347 0.35733819 1.9906267
-1.1592441 0.3584756 1.9912571
-1.1627004 0.35487077 1.9652994
-1.196736 0.36057189 1.991166
-1.2055851 0.35863602 1.9743891
-1.2323937 0.36202437 1.9870449
-1.2442477 0.36099023 1.975117
-1.2554692 0.3598001 1.9622855
-1.2762156 0.3613354 1.9643472
-1.3116709 0.36694908 1.9885455
-1.3294735 0.36755022 1.9851767
-1.3257343 0.36225116 1.949697
-1.351729 0.3651053 1.9584099
1.3933259 0.35564861 1.9866945
1.4061621 0.36304733 2.0354714
1.3519248 0.35309944 1.9861244
1.3483264 0.35629931 2.0110915
1.3243806 0.35413441 2.0054832
1.3129225 0.35529679 2.0187602
1.2891401 0.35311162 2.0127695
1.2786311 0.35455322 2.0275123
1.2679825 0.35599169 2.0422051
1.2510375 0.35567632 2.0466971
1.1965604 0.34454569 1.9881998
1.1755503 0.342888 1.9844836
1.1784315 0.34824696 2.0216725
1.1686212 0.3499482 2.0375018
1.1523683 0.34974 2.0420706
1.1418415 0.35128784 2.0569077
1.110431 0.3463645 2.0334313
1.0868521 0.34377992 2.0235858
1.0813776 0.34692982 2.0476773
1.0638453 0.34624651 2.048928
1.047694 0.34599915 2.0526807
1.0284612 0.34471166 2.0501099
1.0045387 0.34178948 2.0375986
0.98727226 0.34107703 2.0382252
0.9687838 0.33991361 2.036027
0.95828462 0.34156078 2.0507162
0.94189477 0.34112772 2.0527563
0.92875677 0.34187743 2.0618896
0.90958166 0.34039286 2.0573554
0.89482087 0.34053794 2.0626457
0.86579752 0.33516669 2.0341263
0.84705752 0.33365789 2.0290582
0.83922631 0.33646891 2.050396
0.81687766 0.33345583 2.0358944
0.80016589 0.33267489 2.0349996
0.78421575 0.33218718 2.0358186
0.7682966 0.33169407 2.0365152
0.75411034 0.33194447 2.0417306
0.74156171 0.3329401 2.0515003
0.72040379 0.33003223 2.0369394
0.70975822 0.33191943 2.052109
0.69044751 0.32974848 2.0419219
0.68024892 0.33192962 2.0588105
0.65929681 0.32884389 2.0427024
0.6391924 0.32605055 2.0282929
0.62393826 0.32565901 2.0288339
0.60363215 0.32254937 2.012207
0.59212905 0.32410672 2.0248303
0.57510281 0.32264322 2.0183656
0.5634445 0.32419336 2.0308254
0.54882902 0.32407877 2.0327172
0.53371745 0.32365718 2.0325925
0.51402414 0.32035667 2.0141504
0.49413952 0.31674531 1.9936167
0.47846469 0.31569967 1.989252
0.46265176 0.3144969 1.9838049
0.45234329 0.31707761 2.0023494
0.42776024 0.30949634 1.9561259
0.41337395 0.30903384 1.9551301
0.40177017 0.31069127 1.9675928
0.38375831 0.30733478 1.9479775
0.36347502 0.30184412 1.9146116
0.31952482 0.27552435 1.747824
0.27500588 0.24659486 1.5639817
0.25925103 0.24212566 1.5365753
0.24841471 0.2420617 1.5373321
0.23683336 0.24123311 1.5331289
0.22603525 0.24116156 1.5337304
0.2145604 0.24032483 1.5293626
0.20354417 0.23994096 1.5278507
0.19292644 0.24001034 1.5292032
0.18241552 0.24022856 1.5314649
0.17133766 0.23968086 1.528744
0.16030589 0.23912922 1.5259446
0.14941621 0.23872615 1.5240512
0.13891496 0.23892953 1.5260185
0.12839365 0.23912923 1.527915
0.11807828 0.23978323 1.5326964
0.10660902 0.2379912 1.5216347
0.096344702 0.23879045 1.5272577
0.085788734 0.23897536 1.5288656
0.075167127 0.23900387 1.5294147
0.063923351 0.23673762 1.5150799
0.053775955 0.23843864 1.5263443
0.043172378 0.23845588 1.5266752
0.032525018 0.23816374 1.5249574
0.021903303 0.23786789 1.5231669
0.011344087 0.23833211 1.5262449
0.00074118184 0.23802869 1.5243096
-0.0098345736 0.23772152 1.5223022
-0.020408913 0.23771615 1.5221989
-0.030962372 0.23755427 1.5210354
-0.041714422 0.23861073 1.5277036
-0.052157626 0.2378303 1.5224442
-0.062812477 0.2381154 1.5240275
-0.073256113 0.23763309 1.5206014
-0.083601698 0.23699449 1.5161183
-0.094434902 0.23772639 1.520444
-0.10485947 0.23738582 1.5177919
-0.11554883 0.23765212 1.5190116
-0.12601693 0.23745689 1.5172024
-0.13690434 0.23802088 1.5202442
-0.14708328 0.23736055 1.5153391
-0.15760641 0.23730694 1.5142998
-0.16920267 0.2387744 1.5230125
-0.17989294 0.23886554 1.5228037
-0.19058841 0.23895304 1.5225213
-0.20128851 0.23903675 1.5221646
-0.2121278 0.23926912 1.5227134
-0.22255902 0.23904094 1.5202519
-0.23385745 0.23972258 1.5235831
-0.24521235 0.24040009 1.5268316
-0.25532791 0.23985675 1.5221971
-0.2662347 0.24007046 1.5223666
-0.27733144 0.24043238 1.5234318
-0.2910037 0.24291731 1.5380183
-0.38035789 0.30613843 1.9405814
-0.40825972 0.31723744 2.0096393
-0.42440379 0.31876373 2.0174482
-0.43879744 0.31891909 2.0164356
-0.45298284 0.31891811 2.0143571
-0.46449822 0.31709448 2.0006211
-0.48133257 0.31890237 2.0099041
-0.4952606 0.31873631 2.0065696
-0.51037562 0.31932217 2.0079319
-0.52379572 0.31884456 2.0024843
-0.54099083 0.32062948 2.0112748
-0.55624115 0.32119969 2.0122974
-0.57233727 0.32221749 2.0160606
-0.5846687 0.32111785 2.0064027
-0.59886456 0.32107028 2.0033064
-0.61276007 0.32086763 1.9991642
-0.61809754 0.31629491 1.9675558
-0.58785063 0.29412156 1.8257813
-0.66135156 0.32369223 2.0077775
-0.67967862 0.32557377 2.0163302
-0.69655734 0.32669747 2.0200491
-0.70470566 0.32376426 1.9984347
-0.72624487 0.32697752 2.0149734
-0.73854554 0.32598674 2.0053077
-0.756284 0.32738814 2.0103891
-0.77483559 0.32908192 2.0171685
-0.79638916 0.33196419 2.0311594
-0.80722874 0.3303569 2.017379
-0.82051903 0.32979208 2.0099609
-0.83979118 0.3316091 2.0170772
-0.85766941 0.33282256 2.0203774
-0.87212574 0.33268946 2.0153487
-0.88854057 0.33329546 2.0147457
-0.90942371 0.33553007 2.0239463
-0.92475528 0.33567739 2.0203481
-0.93800914 0.33507782 2.012146
-0.95709896 0.33654913 2.0163817
-0.9715932 0.33638406 2.0106397
-0.98605895 0.33621427 2.0047925
-1.0022551 0.33663076 2.002383
-1.0242696 0.33896047 2.0113199
-1.0383211 0.33862558 2.0042133
-1.0564535 0.3396121 2.0048957
-1.0723281 0.33985534 2.0010555
-1.0924394 0.34141582 2.0049205
-1.1078962 0.34149879 1.9999338
-1.1194806 0.3404021 1.9879194
-1.137796 0.34135404 1.987882
-1.1433123 0.33849156 1.965409
-1.1660918 0.34074807 1.9728203
-1.198656 0.3457692 1.9961556
-1.2187974 0.34712496 1.9979748
-1.2436901 0.34978306 2.0071943
-1.2525277 0.34791583 1.9901491
-1.2611922 0.34604666 1.9730783
-1.307184 0.35434106 2.0142093
-1.2909961 0.34578329 1.9587375
-1.3348511 0.35331988 1.995087
-1.3201026 0.34534985 1.9431275
-1.3572202 0.35097563 1.9682356
1.4147036 0.34504187 2.0191917
1.3624028 0.33610216 1.9733809
1.3567977 0.33860829 1.9950837
1.3465716 0.34000662 2.0102053
1.32481 0.33849081 2.0078812
1.3095903 0.33863011 2.0153396
1.2858399 0.3365401 2.0093079
1.2779926 0.33861214 2.0282321
1.2663133 0.33970794 2.0412405
1.2468191 0.33870846 2.041481
1.2395649 0.34105107 2.0619571
1.2135359 0.33822182 2.0508375
1.1907001 0.33621982 2.0445998
1.1758474 0.33644873 2.0519147
1.1570871 0.33555064 2.0522084
1.1245371 0.33057424 2.0271871
1.1183277 0.33331046 2.0496984
1.0969713 0.33154562 2.0442557
1.0812619 0.33146155 2.0491395
1.0555717 0.32827109 2.0345385
1.0305893 0.32521024 2.0205641
1.0124718 0.32425672 2.0196369
1.0009443 0.32541674 2.0318954
0.99272954 0.32770604 2.0512285
0.97373855 0.32645398 2.0481617
0.94110727 0.32051671 2.0152915
0.94465429 0.32690796 2.0604553
0.92420715 0.32506916 2.0533416
0.89198393 0.31895819 2.0188484
0.89236754 0.32449731 2.0585678
0.86761332 0.32092884 2.0400238
0.850357 0.32005733 2.038614
0.82981545 0.31789616 2.0288091
0.81860298 0.31929535 2.0418093
0.79502869 0.31583539 2.0233982
0.79329777 0.32108608 2.0611596
0.77513301 0.31975919 2.0563498
0.75265115 0.31656453 2.0393078
0.7428031 0.31866211 2.0565252
0.72096425 0.3155964 2.0400832
0.70774013 0.31625259 2.0477781
0.69224477 0.31590012 2.04882
0.67584723 0.31511179 2.0469251
0.65166736 0.31057951 2.0203974
0.63881046 0.31136042 2.0285842
0.62645167 0.31242591 2.0385835
0.60778016 0.31031901 2.0276425
0.58956712 0.30834925 2.0174925
0.5758301 0.30868065 2.0224264
0.56310517 0.30958539 2.0310836
0.54952228 0.31005356 2.0367942
0.53015369 0.30719459 2.0203912
0.50763971 0.30230394 1.9903902
0.49737394 0.30463627 2.0082235
0.47885358 0.30190128 1.9923228
0.46815655 0.30408233 2.0090415
0.44946638 0.30104584 1.9909486
0.43293527 0.29930645 1.9813992
0.41351271 0.29538593 1.9571928
0.39307016 0.29044199 1.9260283
0.37781826 0.28911784 1.9189546
0.36597669 0.29040191 1.9292665
0.3134625 0.25827295 1.7155883
0.27001092 0.23134568 1.5363851
0.2580359 0.23027055 1.5303842
0.24693733 0.22991829 1.5291777
0.23781091 0.23145351 1.5406065
0.22539867 0.22978476 1.5304445
0.21395369 0.22898486 1.5260663
0.20348457 0.22920029 1.5284708
0.19323768 0.22970371 1.532768
0.18236238 0.22947538 1.5320849
0.17117852 0.2288062 1.5283765
0.16056561 0.228862 1.529508
0.14908567 0.22760205 1.5217049
0.13896289 0.22837976 1.5276127
0.12819211 0.22813314 1.5265526
0.11766799 0.22832061 1.5283774
0.10698796 0.22821268 1.528157
0.096008331 0.2273715 1.5229264
0.08581847 0.22842397 1.5304599
0.075193189 0.22845125 1.531009
0.064564377 0.22847497 1.5314859
0.053553399 0.22688903 1.5210143
0.043104369 0.22748949 1.5252994
0.032411102 0.22677222 1.520612
0.021924986 0.22751158 1.525743
0.011304384 0.22693312 1.5218993
0.00074191543 0.22766535 1.5268871
-0.0098379925 0.22722566 1.5238879
-0.020416006 0.22722055 1.5237848
-0.03089346 0.22648169 1.518664
-0.041568622 0.22719947 1.5233618
-0.052276272 0.22776757 1.5269971
-0.062592447 0.22672607 1.5196853
-0.073187329 0.22684905 1.5202104
-0.083684549 0.22667645 1.5186871
-0.094406947 0.22708414 1.5210426
-0.10503068 0.22719628 1.5213497
-0.11558879 0.22715899 1.520597
-0.12614146 0.22711809 1.5197723
-0.13739054 0.22824043 1.5267593
-0.14713399 0.22688 1.5169226
-0.15877527 0.22843221 1.5267082
-0.16850427 0.22721106 1.5177217
-0.17995475 0.22831829 1.5243974
-0.18870832 0.22607109 1.508406
-0.20097245 0.22804481 1.5208164
-0.2126056 0.22914042 1.5272501
-0.22334409 0.22921313 1.5267426
-0.23289745 0.22811846 1.5183356
-0.24312231 0.22774825 1.5147562
-0.25541469 0.22926489 1.5237979
-0.26699969 0.23005028 1.5278684
-0.27777609 0.23010533 1.5269839
-0.2940149 0.23451321 1.5551997
-0.38973406 0.29973105 1.9902154
-0.40742013 0.3025021 2.0069072
-0.42414218 0.30439615 2.0176389
-0.4395707 0.3052693 2.0214663
-0.4533498 0.30497819 2.0174522
-0.46620736 0.3041037 2.0094881
-0.47989252 0.30380467 2.0052946
-0.49918911 0.30697346 2.0240757
-0.50861019 0.30406204 2.002389
-0.52744728 0.30678502 2.0180235
-0.54142463 0.30661219 2.0143726
-0.55616295 0.30686826 2.013489
-0.57011211 0.30668694 2.0096412
-0.59008026 0.30967322 2.0266118
-0.59877956 0.30674425 2.004504
-0.61468703 0.30755833 2.0069907
-0.6188879 0.30261126 1.971561
-0.64669591 0.30917048 2.0115924
-0.66801929 0.3124114 2.0296977
-0.68115419 0.31176633 2.0222635
-0.69358081 0.31083074 2.0128717
-0.70460683 0.30931854 1.9996682
-0.72514689 0.31195986 2.0134351
-0.74421567 0.31387699 2.0223656
-0.75652725 0.31292522 2.0125828
-0.77402753 0.31411511 2.0165997
-0.79341632 0.31601307 2.0250828
-0.80201149 0.31362113 2.0057948
-0.82375258 0.31636342 2.0195129
-0.84232569 0.31781411 2.0247915
-0.85602278 0.31740674 2.01805
-0.85796124 0.31272712 1.9839269
-0.89834237 0.32198226 2.0387502
-0.91615915 0.32297885 2.0406673
-0.91932148 0.31886047 2.0099852
-0.93415374 0.31885624 2.005414
-0.95107931 0.31955555 2.0052111
-0.97275734 0.32180548 2.0146887
-0.98897576 0.3222084 2.0123944
-1.013136 0.32514811 2.0259328
-1.0183471 0.32200944 2.0012317
-1.0427222 0.32493362 2.014421
-1.0581644 0.32503033 2.0098176
-1.0828892 0.32793546 2.0225821
-1.0956107 0.32717532 2.0124507
-1.1053886 0.32556906 1.9970318
-1.1048738 0.32101575 1.9634185
-1.134738 0.32529265 1.9841595
-1.1609908 0.32843521 1.997717
-1.1909956 0.33254376 2.0169842
-1.2030922 0.33161074 2.0052998
-1.2161134 0.33095303 1.9952387
-1.2285386 0.33015156 1.9842482
-1.2413979 0.32948515 1.9740208
-1.2674299 0.33228856 1.9846216
-1.2695575 0.32883275 1.9574796
-1.2919563 0.33064726 1.9619079
-1.305174 0.33009702 1.952089
-1.2884463 0.32207415 1.8978213
-1.3347472 0.32980987 1.9370905
1.382341 0.32145283 1.9743079
1.392503 0.32753494 2.0190105
1.3533401 0.32202172 1.9916216
1.3365686 0.32176948 1.996817
1.3480123 0.32838464 2.0450084
1.3298589 0.32786223 2.0484581
1.2888911 0.32163388 2.0157673
1.2731332 0.32162043 2.0221152
1.2620274 0.32279664 2.0359383
1.2384717 0.32077786 2.0293574
1.2115209 0.31781673 2.0165892
1.1988578 0.31857544 2.027478
1.1697496 0.31492671 2.0099659
1.1722877 0.31981426 2.0472915
1.1482491 0.31748542 2.0380371
1.1291776 0.31648502 2.0372305
1.1111212 0.31574532 2.0379996
1.0987006 0.31660888 2.0491135
1.0710219 0.31303743 2.031178
1.0690392 0.3169817 2.0623009
1.0376102 0.31218249 2.0360157
1.0198363 0.31140974 2.0360148
1.0112513 0.31346196 2.0545607
0.98745632 0.31079003 2.0418184
0.97572404 0.31189063 2.0539398
0.96054542 0.31190696 2.0588026
0.93632829 0.30894163 2.0437098
0.91075593 0.30542469 2.0247631
0.90537637 0.30867508 2.0509353
0.88207299 0.30582118 2.0361693
0.87634861 0.30906874 2.0622587
0.85364604 0.30633736 2.0480828
0.83751673 0.30590948 2.0493002
0.8104341 0.30139264 2.0227747
0.80066746 0.30326748 2.0393596
0.7868281 0.30364129 2.0457244
0.76600426 0.30128232 2.0334363
0.74198622 0.29755002 2.0116575
0.73367733 0.30009413 2.0325449
0.72085917 0.30085999 2.0412588
0.70603174 0.30080163 2.0442703
0.68175769 0.29663053 2.0189974
0.67174107 0.29861644 2.0358515
0.65217185 0.29634973 2.023416
0.64934486 0.30176049 2.0637569
0.625781 0.29756206 2.0378277
0.6082527 0.29610214 2.030664
0.59416348 0.29628611 2.0347731
0.58058697 0.29674128 2.0406916
0.56590855 0.29664218 2.0427003
0.54508722 0.29323319 2.021641
0.51959515 0.28705993 1.9812235
0.50804347 0.28845945 1.9933673
0.49800444 0.29082215 2.0121791
0.48038384 0.28876615 2.0001173
0.46250784 0.28642762 1.9859802
0.44852826 0.28643158 1.988124
0.42950872 0.28311363 1.9669403
0.42095587 0.28670362 1.9940592
0.40046346 0.28212908 1.9638809
0.38287303 0.27934596 1.9461552
0.36225083 0.2740635 1.9107631
0.31091854 0.24425058 1.7026922
0.27026817 0.22078553 1.5389031
0.25779375 0.21934432 1.5299655
0.24701767 0.21928577 1.5307102
0.2357951 0.21880764 1.5284437
0.22718579 0.2208242 1.5437357
0.21429576 0.21867354 1.5295544
0.20316324 0.21818478 1.5270528
0.19268815 0.21838705 1.5293853
0.18172729 0.21803021 1.5277132
0.17101668 0.21794787 1.5279328
0.16051619 0.21814017 1.5300483
0.14989914 0.21819013 1.5311071
0.13891998 0.21768032 1.5281483
0.12831645 0.2177234 1.5290598
0.11725561 0.21692824 1.5239744
0.10681807 0.21724279 1.5267143
0.095855214 0.21644047 1.5214767
0.085298374 0.21646979 1.5220946
0.074737504 0.21649571 1.5226406
0.064255647 0.21679671 1.5250932
0.053743549 0.2170943 1.5274746
0.042897284 0.21585669 1.5188966
0.032442745 0.21642597 1.5231133
0.021904116 0.21671334 1.5252788
0.011300866 0.21630089 1.5224216
0.00074073381 0.21672069 1.5254333
-0.0098349387 0.21657993 1.5244122
-0.020501543 0.21754998 1.5312401
-0.030943571 0.21628813 1.5221534
-0.041368637 0.21558006 1.5169568
-0.052058969 0.21626119 1.5215871
-0.062411636 0.2155464 1.5162489
-0.07311739 0.21608138 1.519744
-0.083820112 0.21647364 1.5221756
-0.094256133 0.21616639 1.5195907
-0.10499797 0.21655172 1.5218757
-0.11495865 0.21540287 1.5132234
-0.12577793 0.21592055 1.5163512
-0.13664553 0.2164347 1.519403
-0.14661495 0.21555452 1.5125201
-0.15740854 0.21592277 1.5144393
-0.16812721 0.2161485 1.5152986
-0.17989898 0.21762146 1.5249355
-0.18913512 0.21603389 1.5128613
-0.20116664 0.21763833 1.5233184
-0.21145906 0.21729462 1.5199479
-0.2227077 0.21791947 1.5233698
-0.23460773 0.21909562 1.5306263
-0.24366733 0.21763225 1.5192086
-0.25484958 0.21810779 1.521418
-0.26556772 0.21816395 1.5206189
-0.27856764 0.22001797 1.5324163
-0.29848051 0.22699152 1.5801265
-0.3870278 0.28379267 1.9776307
-0.40676937 0.28795844 2.0050406
-0.42023572 0.28755191 2.0002778
-0.43553576 0.28838584 2.0041392
-0.45069405 0.2890766 2.0069189
-0.46680027 0.29031494 2.0134468
-0.48278978 0.29140985 2.0188849
-0.49346474 0.28932604 2.0020719
-0.5090133 0.29013622 2.0053775
-0.5246321 0.29094139 2.0085657
-0.54083019 0.29201695 2.0135479
-0.5594784 0.29432619 2.0270007
-0.57082784 0.29277623 2.0135951
-0.58421975 0.29232404 2.0077438
-0.60149902 0.2937921 2.0151
-0.62092423 0.29621547 2.0289481
-0.63438863 0.29574957 2.022763
-0.64599442 0.29445735 2.0108268
-0.65808356 0.2934368 2.0007107
-0.68356216 0.29830289 2.0309241
-0.69860011 0.29850474 2.0290105
-0.70907229 0.29678729 2.0138938
-0.72836912 0.2987583 2.0239182
-0.74546367 0.2997663 2.0272577
-0.75710565 0.29858515 2.0156052
-0.77708429 0.30067426 2.0261095
-0.79294175 0.30112088 2.025352
-0.80189162 0.29897586 2.0069747
-0.81545949 0.29859847 2.0005093
-0.8414492 0.30270299 2.0241745
-0.85743606 0.30312955 2.022918
-0.86915505 0.30205831 2.0115204
-0.90099597 0.30789918 2.0463579
-0.89588416 0.3011277 1.9966739
-0.91387093 0.30221343 1.9994935
-0.95812005 0.31181154 2.0588264
-0.95178956 0.30490616 2.0082548
-0.9730522 0.30691686 2.0168519
-0.97755516 0.30366042 1.9905113
-0.98834896 0.30242628 1.9775199
-1.0271373 0.30966836 2.0202069
-1.0376081 0.30828694 2.0060296
-1.0451854 0.30609751 1.9865321
-1.0618414 0.30659121 1.9845299
-1.0898232 0.31029588 2.0033193
-1.1062012 0.31064039 2.0000954
-1.1230748 0.31111285 1.9976047
-1.1380163 0.31104472 1.9915265
-1.1559014 0.31177223 1.9904879
-1.1648176 0.31009316 1.973901
-1.1710299 0.30774668 1.9530264
-1.225713 0.31803632 2.0127423
-1.2309895 0.3154093 1.9898578
-1.2527915 0.31702921 1.99391
-1.2529732 0.31320515 1.9634204
-1.2753098 0.31494451 1.9680403
-1.2777253 0.31178147 1.9417343
-1.3471993 0.32486337 2.0171151
-1.307662 0.31165972 1.9279623
-1.3362815 0.3148171 1.9409595
1.3878444 0.30697411 1.9838158
1.3693929 0.30637166 1.9868299
1.3825673 0.31291294 2.036582
1.3627477 0.31205279 2.0378408
1.3239815 0.30678201 2.0098603
1.3066198 0.30640373 2.013972
1.3041428 0.30954924 2.0413976
1.2714039 0.30550081 2.0209205
1.2592789 0.30636638 2.0330465
1.2342103 0.30406496 2.0238841
1.2164425 0.30352634 2.026402
1.2042235 0.30437624 2.0381825
1.1809965 0.30242956 2.0309892
1.173607 0.30454063 2.0511713
1.1587415 0.30474266 2.0583587
1.1309375 0.30150083 2.0419688
1.1114423 0.30041492 2.0401251
1.0966896 0.30059823 2.0468652
1.0855787 0.30179933 2.0605288
1.0611849 0.29928893 2.0485556
1.0396992 0.297537 2.0416546
1.0104234 0.29347026 2.0185666
1.0019716 0.29542014 2.0370593
0.9834525 0.29441613 2.0349631
0.97177887 0.2954621 2.0470617
0.95749116 0.29573378 2.053695
0.92183006 0.28930646 2.0132792
0.92233151 0.2942037 2.0521684
0.9036501 0.29304326 2.0484622
0.87958866 0.29006922 2.0318406
0.87352186 0.29302922 2.0570188
0.86033434 0.29366243 2.0657122
0.83925033 0.29157481 2.0550232
0.81579643 0.28857303 2.0376921
0.80090106 0.2885437 2.0413878
0.77751577 0.28539681 2.0227411
0.77108675 0.28847268 2.0484538
0.75685024 0.28869092 2.0536866
0.73957413 0.28773528 2.0504191
0.7089442 0.28143951 2.0086453
0.70623988 0.28619835 2.046279
0.68038481 0.28157845 2.0162771
0.66299719 0.28033832 2.0105186
0.65689349 0.28392029 2.0395591
0.64008558 0.28293329 2.0354848
0.62365639 0.28207174 2.0322251
0.61069274 0.28277388 2.0402415
0.58965266 0.27967945 2.0205603
0.5804916 0.28220561 2.0417159
0.56029946 0.27936104 2.0236466
0.54704404 0.27991644 2.0302997
0.51201677 0.26906094 1.9533939
0.49993771 0.26999688 1.9626113
0.49413794 0.27447417 1.9977499
0.48581269 0.27777025 2.0242212
0.46131009 0.27173638 1.9820925
0.44779924 0.27200282 1.9861621
0.43194756 0.27081877 1.9794831
0.41255334 0.26726106 1.955217
0.39921108 0.26751405 1.9589585
0.37938473 0.26328522 1.9295291
0.35320726 0.25417358 1.8638768
0.29725432 0.22211412 1.6282331
0.26882431 0.20888306 1.5315834
0.25803661 0.20883067 1.5324035
0.24646914 0.20811531 1.5282547
0.2357188 0.20805636 1.5289203
0.22668517 0.20957892 1.5412819
0.21504308 0.2087215 1.5359192
0.20335609 0.20772822 1.5294881
0.19262582 0.20765644 1.5298557
0.18166837 0.20731698 1.5281802
0.17041571 0.20657739 1.5234724
0.15995258 0.20676024 1.5255848
0.14956398 0.2070723 1.5286132
0.13834214 0.20619017 1.5226868
0.12802881 0.20662816 1.5265578
0.11721737 0.20626876 1.5244303
0.10678336 0.20656805 1.5271715
0.0958855 0.20593715 1.5229176
0.08516074 0.20556773 1.5205668
0.074905388 0.20638719 1.5270517
0.064110853 0.20574626 1.5225749
0.053588148 0.20589696 1.523967
0.043076977 0.20617689 1.526278
0.032348614 0.20526101 1.5195992
0.021882899 0.20593196 1.5247393
0.011333564 0.20633467 1.527826
0.00073906395 0.20567393 1.5229112
-0.0098064234 0.20540747 1.520898
-0.02036362 0.20553534 1.5217862
-0.030873654 0.20526235 1.5196291
-0.041435212 0.20538369 1.5203735
-0.05197487 0.20536925 1.5200549
-0.062431399 0.2050866 1.5176837
-0.073093392 0.2054631 1.5201919
-0.083469167 0.20504154 1.5166883
-0.094043091 0.20514663 1.5170724
-0.10449114 0.20498359 1.5154061
-0.11588636 0.20653856 1.5265182
-0.12614185 0.20597179 1.5217401
-0.13607362 0.20500498 1.5139325
-0.14703956 0.20562318 1.5179017
-0.15766077 0.20570879 1.5178488
-0.16947782 0.20724598 1.5285609
-0.17926586 0.20626692 1.5204768
-0.19016764 0.20660713 1.5221691
-0.20045899 0.20628323 1.51887
-0.21125469 0.20648479 1.5194303
-0.22206761 0.2066831 1.5199152
-0.23259991 0.20661408 1.5183643
-0.24467504 0.20786177 1.5265316
-0.25395614 0.20673072 1.5170025
-0.26564986 0.20757562 1.5220714
-0.27918005 0.20973496 1.5368083
-0.31460324 0.22757043 1.6673852
-0.3873356 0.27015033 1.9804934
-0.40689415 0.27398199 2.0069582
-0.42117319 0.27412143 2.0060747
-0.43880168 0.27636138 2.0205958
-0.4512625 0.27530834 2.0107796
-0.46672022 0.27609205 2.0144145
-0.48064867 0.27595159 2.0111806
-0.49455583 0.27580732 2.0078514
-0.50819921 0.27552801 2.0034654
-0.52230424 0.27550742 2.0009074
-0.54482079 0.27980784 2.0298636
-0.55545825 0.27794316 2.0136631
-0.56938899 0.2777786 2.0098209
-0.5854941 0.2786569 2.0135031
-0.60505557 0.28109908 2.0284667
-0.61247069 0.27791592 2.0024633
-0.62986565 0.27930307 2.009589
-0.65401125 0.28355533 2.037353
-0.66565746 0.28232113 2.025291
-0.68470603 0.28421214 2.035737
-0.69528157 0.28258055 2.0206823
-0.71026158 0.2827692 2.0186844
-0.72824979 0.28412393 2.0249798
-0.74602193 0.28534281 2.0301921
-0.76044255 0.28525749 2.0259635
-0.77660638 0.285817 2.0262661
-0.78850752 0.28481606 2.0153501
-0.807239 0.28627375 2.0218806
-0.82387233 0.28694856 2.0227325
-0.83262289 0.28490245 2.0041988
-0.84961545 0.28569844 2.0057514
-0.87018836 0.28765097 2.0153668
-0.88458908 0.28753209 2.0102527
-0.89735293 0.28689378 2.001411
-0.92068517 0.28960037 2.0159717
-0.92888862 0.28753778 1.9969898
-0.94531512 0.28804541 1.9959403
-0.97418928 0.29227182 2.0207014
-0.98869258 0.292124 2.0148416
-1.0044876 0.29235652 2.0115421
-1.0265405 0.29437676 2.0205169
-1.0406234 0.29408598 2.0133972
-1.0670483 0.29724157 2.0299194
-1.0714447 0.29425836 2.0041158
-1.0967308 0.2970154 2.0176287
-1.1117675 0.29695922 2.0117531
-1.1282295 0.29728004 2.0083637
-1.1432358 0.29721388 2.0022521
-1.1606913 0.29777783 2.0003254
-1.1806846 0.29896969 2.0025325
-1.1820146 0.29546574 1.9730077
-1.2163271 0.30019075 1.9987541
-1.2282366 0.29933754 1.9869128
-1.2384702 0.29810211 1.9724749
-1.2528099 0.29787305 1.9646968
-1.2644233 0.29700917 1.9526402
-1.2813534 0.29739982 1.9488256
-1.3048681 0.29929158 1.9547949
-1.3224413 0.29979238 1.9514744
-1.3366778 0.29953396 1.943087
1.4040827 0.29462305 2.0087321
1.368098 0.2903693 1.9864386
1.3674294 0.2935994 2.0156326
1.3702635 0.29766631 2.050703
1.3520437 0.29720202 2.0543218
1.3048353 0.2902776 2.0126987
1.289096 0.29027045 2.0191641
1.2686039 0.28917974 2.0179262
1.2429991 0.2868818 2.0080416
1.2453403 0.29105723 2.043772
1.2177941 0.2882649 2.0301526
1.1970272 0.28702563 2.0273843
1.1867771 0.28830874 2.0424843
1.1705003 0.28814238 2.0471771
1.1334108 0.28277889 2.014472
1.139851 0.28827766 2.0596571
1.1159943 0.28616038 2.050004
1.0997852 0.28597206 2.0541441
1.0849571 0.28614256 2.0607963
1.0401556 0.27829856 2.0090692
1.0372992 0.28161147 2.0383356
1.0098178 0.27823818 2.0187573
0.99441296 0.27814069 2.0229833
0.99187344 0.28169394 2.0539429
0.96612632 0.27866423 2.0364702
0.95317149 0.27928671 2.0457666
0.93726683 0.27905095 2.0486538
0.91813987 0.27783245 2.0441661
0.90389872 0.27807644 2.0504231
0.89118606 0.27880687 2.0602276
0.8695249 0.27671468 2.0489171
0.85034055 0.27535126 2.0429096
0.83873725 0.27643779 2.0551322
0.82188237 0.27580148 2.0543776
0.79212588 0.27073219 2.0201938
0.77667111 0.27045193 2.0218644
0.77060711 0.27349377 2.0485201
0.7485435 0.27086517 2.0323122
0.73844337 0.27254719 2.0486012
0.70094621 0.26397979 1.9871067
0.70033115 0.26923493 2.030349
0.6821506 0.26781696 2.0228596
0.66534281 0.26688817 2.0189888
0.64922756 0.26620206 2.0168748
0.63406175 0.265883 2.0174768
0.61805415 0.26518789 2.0151186
0.60832447 0.26721743 2.0335639
0.59175134 0.26626649 2.0290945
0.57607853 0.26568338 2.0273597
0.56229883 0.26596582 2.0322042
0.52235109 0.25356054 1.9391787
0.50492537 0.25171363 1.927335
0.50518423 0.25882471 1.9846097
0.49049813 0.25846612 1.9841579
0.4668825 0.25324303 1.9459548
0.4730466 0.26434538 2.0341728
0.4455477 0.25674221 1.9773206
0.43564042 0.25911286 1.99777
0.42141053 0.25898463 1.9987539
0.39952406 0.25398025 1.9617099
0.3789261 0.24946763 1.9283583
0.34818232 0.23769525 1.8382643
0.29310641 0.2077717 1.6062782
0.26924288 0.19846869 1.5349272
0.25843877 0.19841918 1.5357492
0.24747989 0.19824141 1.5355166
0.23563892 0.19730894 1.5293227
0.22518063 0.19750066 1.5318761
0.21456234 0.19756415 1.5333761
0.20419288 0.19787547 1.5367708
0.19366433 0.19805852 1.5391121
0.18160662 0.19660755 1.5285732
0.17123051 0.19690979 1.5317482
0.16040985 0.19670701 1.5309066
0.14903516 0.19574773 1.524065
0.1392718 0.19691992 1.5339385
0.12773906 0.19557732 1.5239769
0.11747834 0.19611566 1.5287693
0.10661003 0.19564585 1.5255756
0.096037693 0.19567552 1.5262669
0.085460797 0.19570212 1.526886
0.074783668 0.19547422 1.5254512
0.064171471 0.19536889 1.5249342
0.053466324 0.19488324 1.5213697
0.043062277 0.19552611 1.526657
0.0325046 0.19566296 1.5279067
0.0218895 0.19541943 1.5261083
0.011307859 0.19529855 1.5252295
0.00073833426 0.19492307 1.5222945
-0.0098093813 0.19492172 1.5222634
-0.020304097 0.1944143 1.5181926
-0.030942781 0.19516127 1.5239694
-0.04139423 0.19464764 1.5197555
-0.052057613 0.19513687 1.523403
-0.062651917 0.19524577 1.5240035
-0.073115394 0.19497439 1.5215578
-0.083656102 0.19495144 1.5210234
-0.094071358 0.194674 1.5184361
-0.10492763 0.19527321 1.5227073
-0.11577254 0.19574352 1.5259128
-0.12658514 0.19608496 1.528053
-0.13690522 0.19566967 1.524189
-0.14689426 0.19487482 1.5172937
-0.15760647 0.19508158 1.5182295
-0.16747285 0.19428116 1.5112014
-0.17931929 0.19573662 1.521848
-0.19010253 0.19593394 1.522558
-0.20141774 0.1966297 1.5271276
-0.21158777 0.1961938 1.5227689
-0.2218495 0.19588053 1.5193255
-0.23252003 0.19594032 1.5187571
-0.2433487 0.19612232 1.5190943
-0.25549001 0.1973028 1.5271862
-0.26488388 0.19635198 1.5185632
-0.27873549 0.19865146 1.5352734
-0.34949958 0.23983489 1.8551756
-0.38763782 0.25648221 1.983264
-0.41072905 0.26236686 2.0272615
-0.42170039 0.26037502 2.0098405
-0.43767574 0.26150173 2.0166144
-0.45096225 0.26100168 2.0106738
-0.46441102 0.26062307 2.0056143
-0.4794144 0.26111346 2.0072236
-0.49775934 0.26334366 2.0222168
-0.51197642 0.26332662 2.0197325
-0.5299142 0.26517239 2.0315576
-0.53680855 0.26154026 2.0010431
-0.55116576 0.26163742 1.9992434
-0.55800998 0.25825259 1.9705937
-0.58566052 0.26442727 2.0153584
-0.60635328 0.26724091 2.0341449
-0.61264414 0.26372382 2.0043144
-0.63387287 0.26665083 2.0237682
-0.65088415 0.26771292 2.0288417
-0.6698429 0.26951227 2.0394378
-0.68175811 0.26846132 2.0282185
-0.69579697 0.26827312 2.0235059
-0.71307588 0.26931626 2.0280659
-0.71945173 0.2662822 2.0016391
-0.7445308 0.27015376 2.0274343
-0.75961548 0.27031958 2.0250776
-0.76906449 0.26851147 2.0077665
-0.78980327 0.27063909 2.0200279
-0.80600119 0.27116153 2.0201025
-0.82410008 0.27229345 2.0246499
-0.83512121 0.27108806 2.0116088
-0.85215598 0.27184266 2.0131516
-0.87160003 0.27332717 2.0200279
-0.88165677 0.27186748 2.0048993
-0.90203518 0.2735863 2.0133069
-0.92503309 0.27603126 2.026952
-0.92457068 0.27150914 1.9890021
-0.94937205 0.27443138 2.0059562
-0.96289659 0.27405408 1.9984833
-0.99070096 0.27769083 2.0203702
-0.98670274 0.27243793 1.9770343
-1.0004703 0.27217275 1.9701933
-1.0359284 0.27773044 2.0056548
-1.0512803 0.27781585 2.0011091
-1.0633694 0.27704877 1.9903067
-1.0965608 0.28172454 2.0187511
-1.1039624 0.27973714 1.9989508
-1.1237086 0.28088918 2.0016913
-1.1347462 0.2798627 1.9887024
-1.1293246 0.27485737 1.9472613
-1.1544536 0.27732104 1.9591243
-1.1985652 0.28422284 2.0023103
-1.1956335 0.27993554 1.9659271
-1.2239072 0.28297025 1.9813122
-1.2508823 0.28563336 1.9938694
-1.2563416 0.28337842 1.9717402
-1.269067 0.28279707 1.9613274
-1.2898443 0.28400245 1.9633081
-1.2970141 0.28221861 1.9443947
-1.3178294 0.28341076 1.9460801
-1.3594317 0.28899464 1.9779207
1.3840791 0.27470997 1.9813181
1.3718252 0.27540496 1.9933189
1.3666836 0.27756053 2.0159621
1.3541597 0.27824986 2.0278616
1.3361077 0.27780622 2.0313635
1.3234491 0.27848673 2.0430694
1.2772108 0.27203181 2.001811
1.2815531 0.27632359 2.0401075
1.2646363 0.2760815 2.044688
1.2395 0.27401623 2.0355263
1.2155727 0.27216879 2.027822
1.2043682 0.27315897 2.0413165
1.1875829 0.27289274 2.0452828
1.1688449 0.27216482 2.0456562
1.1550052 0.27257314 2.054543
1.1358448 0.27171987 2.0537548
1.1158125 0.27063143 2.0510507
1.0958776 0.26953629 2.0481665
1.078801 0.26912296 2.0503876
1.062659 0.26893419 2.0542364
1.0339878 0.26552236 2.033128
1.0153776 0.26463103 2.0312996
0.99205935 0.26246709 2.0194883
0.98097402 0.26352283 2.032536
0.96764612 0.26399964 2.0410311
0.94466865 0.26181719 2.0286994
0.93710023 0.26390389 2.0496149
0.91716641 0.2625196 2.0433013
0.90692014 0.26390821 2.0586514
0.87418556 0.25868914 2.0219274
0.86743993 0.26111335 2.0452719
0.85586959 0.2621448 2.0576007
0.83821154 0.2613152 2.0551355
0.81257284 0.2579222 2.0322146
0.79773384 0.25789511 2.0358841
0.78465497 0.25844681 2.0440862
0.7763657 0.26062751 2.0652311
0.75010431 0.25674224 2.0378482
0.73830444 0.25775045 2.0494814
0.72179216 0.25712103 2.047924
0.70180333 0.25520125 2.0359006
0.68548226 0.25456196 2.0340605
0.66305202 0.25157699 2.0132136
0.6506092 0.25233305 2.0224302
0.63452721 0.25167999 2.0201938
0.62313342 0.25289932 2.0330343
0.61216038 0.25435147 2.0477176
0.59163499 0.25180864 2.029911
0.57650357 0.25149202 2.0300817
0.5309118 0.23753107 1.9190537
nan nan nan
0.50681037 0.23898157 1.9357357
0.50532198 0.24488577 1.9863294
0.49063215 0.24454667 1.985875
0.46976823 0.24101998 1.9592297
0.46223977 0.24432878 1.9885157
0.44458741 0.24232584 1.9741801
0.43114269 0.24256118 1.9781387
0.41258422 0.23983949 1.9577069
0.403173 0.24243087 1.9809166
0.37865141 0.23579723 1.9280655
0.33966824 0.21933514 1.7939737
0.28806916 0.19315115 1.5793202
0.26778969 0.1867158 1.5274398
0.25818479 0.18749776 1.5351075
0.2469237 0.18709263 1.5329106
0.23690225 0.18763264 1.5384855
0.22552972 0.18710303 1.5351523
0.21435036 0.18668883 1.5327204
0.20321494 0.18627156 1.5302087
0.19322827 0.18691926 1.5364857
0.18165798 0.18602122 1.5298784
0.17127898 0.18630725 1.5330554
0.16014813 0.18575911 1.5292494
0.14965121 0.18592067 1.5312943
0.13868944 0.18548524 1.5283233
0.12859602 0.18623522 1.5351701
0.11721067 0.18508066 1.5261108
0.10650342 0.18487391 1.5248933
0.096188478 0.18537763 1.5295478
0.085210674 0.18457039 1.5232282
0.074612603 0.18447366 1.5227818
0.064189814 0.18484981 1.5262311
0.053274591 0.18367657 1.5167099
0.042880695 0.18416582 1.5210075
0.032284047 0.18381935 1.5182862
0.021783048 0.18394586 1.5194633
0.011267396 0.18406944 1.5205688
0.00073949865 0.18466604 1.5255744
-0.0097995279 0.18418883 1.5215716
-0.020375596 0.18454161 1.5244476
-0.030871864 0.18417752 1.5212944
-0.041352574 0.1839295 1.5190628
-0.05197186 0.18427342 1.5217217
-0.062346991 0.18378168 1.5173627
-0.072947681 0.18400078 1.5188851
-0.083626032 0.18433584 1.5213261
-0.094766423 0.18550023 1.5306299
-0.10461985 0.18416467 1.5190508
-0.11543385 0.18460968 1.5222614
-0.12597224 0.18457627 1.521438
-0.13606519 0.18394583 1.5155978
-0.14703065 0.18450078 1.5195757
-0.156941 0.18374608 1.5126103
-0.1682778 0.18465136 1.5194001
-0.17948499 0.18531589 1.5241338
-0.18966928 0.18490905 1.5199171
-0.20070359 0.18533014 1.5225254
-0.21110642 0.18515506 1.5201366
-0.22176987 0.18521442 1.5196431
-0.23303141 0.18574509 1.5230031
-0.24295054 0.18520612 1.5174543
-0.25507495 0.18632308 1.5255573
-0.26597103 0.18648915 1.525738
-0.28390476 0.19138665 1.5649348
-0.36618343 0.23768614 1.9455937
-0.38963494 0.2438532 1.9947153
-0.40927765 0.24729256 2.0212154
-0.42080536 0.24576274 2.0067089
-0.43131825 0.24375829 1.9882571
-0.45087072 0.24682811 2.0114381
-0.46342716 0.2459978 2.0025063
-0.47748566 0.24599028 2.0002618
-0.49271387 0.24656856 2.002743
-0.51090539 0.24855627 2.0166669
-0.52259624 0.24735944 2.004478
-0.54078412 0.24921983 2.0171764
-0.55681509 0.25001615 2.0210984
-0.57185304 0.2503379 2.0210712
-0.58719367 0.25077322 2.0218878
-0.6006034 0.25038278 2.015923
-0.6151135 0.25045854 2.0136716
-0.63669431 0.25334436 2.0340774
-0.6492514 0.25259104 2.024945
-0.66879106 0.25452796 2.0374541
-0.68099713 0.25365081 2.0271788
-0.6921348 0.2524206 2.0140121
-0.71064872 0.25387579 2.0223572
-0.72931296 0.25532532 2.0305424
-0.73589003 0.25256941 2.004971
-0.76154733 0.25634217 2.031533
-0.77596849 0.25626171 2.0271971
-0.78282893 0.25373358 2.0033121
-0.80657816 0.25667194 2.0228348
-0.82320064 0.25727785 2.0237038
-0.83685237 0.25695032 2.017092
-0.8543011 0.25777984 2.0195456
-0.86518443 0.25663373 2.00633
-0.88585734 0.25838131 2.0158205
-0.89864022 0.25780788 2.0069664
-0.91421479 0.25804096 2.0043647
-0.93188035 0.25884748 2.0061536
-0.94413221 0.25814852 1.9961027
-0.97299671 0.2619434 2.020932
-0.98748279 0.26181105 2.0150833
-1.005024 0.26248053 2.0153615
-1.01726 0.26176515 2.0048449
-1.0371033 0.26299965 2.009285
-1.0465044 0.26158875 1.9932812
-1.0617852 0.26166657 1.9886538
-1.0747015 0.26116759 1.9795358
-1.0970916 0.26295301 1.987759
-1.1264172 0.26632994 2.0079174
-1.1555901 0.26958117 2.0268981
-1.1647804 0.26814651 2.0102572
-1.1838243 0.26898807 2.0107415
-1.1821431 0.26515931 1.976029
-1.2103126 0.26803833 1.9916328
-1.2237095 0.26761472 1.9823692
-1.2312672 0.26594037 1.9637344
-1.2280152 0.26200059 1.9282898
-1.2575983 0.26507688 1.9448338
-1.2853044 0.26768884 1.9577281
-1.2984545 0.26724347 1.9479538
-1.2799634 0.26037201 1.8910681
-1.3228616 0.2660028 1.925676
1.3957531 0.26117879 1.9995154
1.3755337 0.26035142 2.0001001
1.3681363 0.26195991 2.0194798
1.3374783 0.25910011 2.0040343
1.3282925 0.2603814 2.02074
1.3189417 0.26166084 2.0374134
1.2998573 0.26101685 2.0389285
1.2781907 0.25983211 2.0360575
1.2483125 0.25692761 2.0194232
1.2326102 0.25690427 2.0254519
1.2118082 0.25580376 2.0228124
1.2192277 0.2607094 2.0680342
1.189364 0.25766686 2.0496984
1.1598188 0.25461322 2.0310481
1.1441526 0.25456515 2.0363996
1.1370801 0.25645384 2.0573189
1.106172 0.25294462 2.0344911
1.0896219 0.252666 2.0376778
1.063427 0.25011101 2.0222239
1.0647351 0.25404426 2.0595741
1.0315549 0.24974333 2.0295789
1.0120939 0.24868512 2.025944
0.99883395 0.24914162 2.0346477
0.98207331 0.24872553 2.0360901
0.96661478 0.2486314 2.040096
0.95156956 0.24864231 2.0448866
0.92501354 0.24559733 2.0242178
0.92305255 0.24908972 2.0577662
0.8944062 0.24537735 2.031265
0.88889623 0.24799414 2.0574539
0.8715086 0.24733022 2.0561748
0.85494381 0.24688061 2.0565908
0.83394563 0.24511194 2.0458193
0.81643885 0.24432386 2.0431719
0.80117273 0.24418956 2.0459392
0.791924 0.2459188 2.064384
0.76752943 0.24292083 2.0427518
0.75199598 0.2426649 2.0442243
0.73815465 0.2429557 2.0502598
0.71869284 0.24137071 2.0402513
0.70037168 0.24011081 2.0328946
0.68691516 0.24050061 2.0395226
0.67186052 0.24033564 2.0413382
0.65107572 0.23806812 2.0250533
0.63439214 0.23723133 2.0209162
0.62097877 0.23760697 2.0271065
0.60581708 0.23731562 2.0274909
0.59095764 0.23713134 2.028718
0.56721967 0.23328631 1.9982692
0.54892457 0.23154026 1.9858032
0.51955116 0.22490686 1.9309331
0.51018721 0.22681108 1.9498265
0.50788343 0.23204659 1.9975902
0.49265099 0.23150529 1.9952191
0.47678649 0.23062645 1.9898335
0.46213651 0.23029971 1.9891678
0.45141795 0.23197286 2.0058537
0.43293473 0.22963521 1.9875177
0.41777435 0.22896318 1.9836161
0.39895272 0.22616933 1.9610931
0.37267247 0.21879742 1.8984146
0.32253143 0.19635461 1.7036167
0.28072956 0.17746161 1.5395271
0.26887947 0.1767505 1.5345523
0.2566216 0.1757011 1.5265478
0.24745834 0.17677131 1.5370947
0.23546818 0.17582765 1.5299053
0.2248749 0.175887 1.5314755
0.21413496 0.17583184 1.531989
0.20313968 0.17555021 1.5304581
0.19156183 0.17470613 1.5239189
0.18182249 0.17553811 1.5320982
0.17088807 0.17524804 1.5303392
0.15988381 0.17484312 1.5275154
0.14940442 0.17499542 1.5295591
0.13890447 0.17514509 1.5315319
0.1282202 0.1750679 1.5314533
0.11724225 0.17453954 1.5273376
0.1061896 0.17378402 1.521162
0.096152715 0.17470753 1.5297848
0.085178778 0.17394631 1.5234596
0.074777126 0.17430374 1.5269821
0.064165846 0.1742098 1.5264632
0.053427052 0.17366435 1.5218996
0.043058544 0.17435016 1.528188
0.032418195 0.17402349 1.5254651
0.021788945 0.1734696 1.5206825
0.01131416 0.17425941 1.5277507
0.00073493284 0.17302668 1.5168614
-0.0098275114 0.17414758 1.5267673
-0.020354832 0.173807 1.5236834
-0.030820379 0.17335144 1.5195346
-0.04133701 0.17334196 1.5192884
-0.052086595 0.17411503 1.5259224
-0.062363852 0.17331472 1.518581
-0.073156059 0.17396997 1.524075
-0.083972424 0.17451017 1.5285012
-0.094123594 0.17370178 1.5209494
-0.10471562 0.17378786 1.5212626
-0.11546496 0.17409541 1.5234852
-0.125925 0.17395173 1.5216711
-0.13645343 0.17391749 1.5207762
-0.14678603 0.17365643 1.517831
-0.1578964 0.17428887 1.5227249
-0.16875586 0.17458235 1.5245752
-0.17941797 0.17464906 1.5243748
-0.19032876 0.17493691 1.5260736
-0.20062859 0.17466243 1.5227684
-0.21062152 0.17416172 1.5174259
-0.22197084 0.17477688 1.5218544
-0.23353951 0.17550075 1.5271816
-0.24301492 0.17465706 1.5186819
-0.25498021 0.17559859 1.525812
-0.26637906 0.17609017 1.5289327
-0.28327703 0.18003881 1.562291
-0.36627972 0.22414744 1.9471691
-0.39106026 0.2307438 2.0031617
-0.40370971 0.22997364 1.9945997
-0.42334366 0.23310073 2.0200138
-0.4328939 0.23065285 1.9966744
-0.4568114 0.23577364 2.0392675
-0.46643761 0.23343132 2.0167294
-0.47806722 0.2322001 2.0038273
-0.49401909 0.23307863 2.0092058
-0.51273251 0.23517486 2.0250626
-0.52696037 0.23515593 2.0224762
-0.54117829 0.23513366 2.0197902
-0.55145627 0.23344466 2.0026252
-0.57280475 0.23640934 2.0256035
-0.58294171 0.2347149 2.0082722
-0.60160106 0.23645094 2.0204446
-0.6164223 0.23663269 2.0191393
-0.63449788 0.23802702 2.0281665
-0.64911419 0.23809046 2.0256755
-0.66065162 0.23704639 2.013629
-0.66954345 0.23511779 1.993976
-0.69583601 0.23925266 2.0260386
-0.700032 0.23577619 1.9930731
-0.72615987 0.23967786 2.0228777
-0.75171322 0.24324046 2.0496137
-0.76069796 0.24140774 2.0304439
-0.77792555 0.24221076 2.0335486
-0.78912956 0.24114326 2.0207567
-0.81482047 0.24446101 2.0448787
-0.82303268 0.24250993 2.0244961
-0.84311128 0.24406247 2.0335114
-0.85335833 0.2427645 2.0185139
-0.87008834 0.24332358 2.0190082
-0.88647288 0.24376899 2.018455
-0.90047514 0.24355544 2.0123203
-0.91443962 0.24333873 2.0060871
-0.93710053 0.2454063 2.0187159
-0.94900775 0.24463712 2.0077264
-0.96423984 0.24473546 2.003844
-0.98902869 0.24721973 2.0195155
-1.0026262 0.24687409 2.0117702
-1.028681 0.24956085 2.0287964
-1.0341864 0.24725655 2.0048501
-1.0440065 0.24603501 1.9897417
-1.0662326 0.24773034 1.9983133
