# .PCD v0.7 - Point Cloud Data file format
VERSION 0.7
FIELDS x y z
SIZE 4 4 4
TYPE F F F
COUNT 1 1 1
WIDTH 1497
HEIGHT 1
VIEWPOINT 0 0 0 1 0 0 0
POINTS 1497
DATA ascii
-1.2780498 0.98668659 1.8958933
-1.3283484 1.0130013 1.9402337
-1.3475224 1.0152321 1.9378147
-1.3524818 1.006828 1.9149002
-1.3747694 1.0113693 1.9167551
-1.3982319 1.0166591 1.9198977
-1.3760859 0.98904693 1.8604882
1.4357287 1.002255 1.91338
1.42796 1.0082805 1.93216
1.4151243 1.0108267 1.9442053
1.4182204 1.0249465 1.9787277
1.4060652 1.0282489 1.9922477
1.3775578 1.0195287 1.9821783
1.3477201 1.0095996 1.9695351
1.3319693 1.0101084 1.9772716
1.3202261 1.0137069 1.991052
1.2943298 1.0063918 1.9831271
1.2562473 0.98929274 1.9555357
1.2460395 0.99398613 1.9712017
1.2434022 1.0049216 1.9993623
1.2213103 1.0002153 1.9961218
1.2021646 0.99782759 1.9974195
1.1970458 1.0071764 2.0223534
1.1571172 0.98708999 1.9875876
1.1468375 0.99208635 2.0035486
1.1197996 0.98252147 1.9897691
1.1151465 0.99260479 2.0160098
1.0909667 0.98534793 2.0066984
1.0618222 0.97332376 1.9874138
1.0410874 0.96876132 1.9833115
1.0246571 0.96812546 1.9872013
1.0053415 0.96470118 1.985221
0.99139512 0.96640193 1.9937795
0.99418938 0.98473936 2.0369477
0.96408367 0.9705562 2.0122783
0.93517405 0.95712507 1.9889604
0.91621071 0.95359129 1.986205
0.90109897 0.95401359 1.9916581
0.8793065 0.94725364 1.9818909
0.8820594 0.96716636 2.0283439
0.86238778 0.96276742 2.0234139
0.84003091 0.95515269 2.011539
0.83100098 0.96268964 2.0317361
0.79632944 0.9402408 1.9880248
0.77929592 0.93814605 1.9874991
0.76459831 0.9388358 1.9928335
0.74251252 0.93029708 1.9783167
0.74795616 0.95661223 2.0384867
0.71201438 0.92999035 1.9849192
0.70006573 0.93423146 1.9975699
0.67884296 0.92600995 1.9832752
0.66997248 0.93464738 2.0052917
0.64701068 0.92357147 1.9846021
0.63678455 0.93058032 2.0029833
0.61583394 0.92187667 1.9872018
0.59935308 0.91959649 1.9852606
0.59036684 0.92899287 2.0086689
0.56633371 0.91458368 1.9801179
0.54786277 0.90862161 1.969859
0.53573477 0.91314036 1.9824198
0.52852559 0.9265399 2.0143867
0.50273365 0.90719301 1.9745232
0.486909 0.9052062 1.9726053
0.48401728 0.92788845 2.0248451
0.45440769 0.89916271 1.9639587
0.44195765 0.90361011 1.9759622
0.42322749 0.89508188 1.9592866
0.40754175 0.89261383 1.9558822
0.39496517 0.89702481 1.9676008
0.38447741 0.90670007 1.9909142
0.3726795 0.91393447 2.0087881
0.35062972 0.8955844 1.9699018
0.33678675 0.89751422 1.9758667
0.32171017 0.8961823 1.9745237
0.30151919 0.87980068 1.9396605
0.29207152 0.89469653 1.9742265
0.27709302 0.89332354 1.972564
0.25916663 0.88176906 1.9481529
0.24883999 0.89623225 1.9816116
0.23102136 0.88383299 1.9551463
0.21509804 0.8775202 1.9421564
0.19956286 0.87200612 1.930864
0.18835886 0.88602173 1.9631
0.17365924 0.88455433 1.9607048
0.15966499 0.88673937 1.9663994
0.1455977 0.88891232 1.9720004
0.13103712 0.88822085 1.9711279
0.11729965 0.89362872 1.9838291
0.099213898 0.86275405 1.9152734
0.088367932 0.89503491 1.9879771
0.073244326 0.88817793 1.9730206
0.057668213 0.87111616 1.9351383
0.044254553 0.88624454 1.9692631
0.029922854 0.88872367 1.9749956
0.015325809 0.88059038 1.9568894
0.0010151507 0.89160514 1.9815997
-0.013598129 0.8989377 1.9979926
-0.027451308 0.87445885 1.9430672
-0.042178437 0.88502711 1.9665661
-0.057274532 0.89598924 1.990872
-0.07056883 0.88003469 1.9548385
-0.085741185 0.88893211 1.9743762
-0.099409766 0.88192093 1.9582335
-0.11484613 0.8903833 1.9766476
-0.12949033 0.8914966 1.9785433
-0.14337903 0.88770813 1.9694068
-0.15757687 0.88635188 1.9656416
-0.17157014 0.88416862 1.9599609
-0.18771639 0.89256018 1.9778291
-0.20265613 0.89442205 1.9810342
-0.21488546 0.88487333 1.9587071
-0.22964884 0.88630313 1.9608114
-0.24411888 0.88649911 1.9600914
-0.25882882 0.88749552 1.9610827
-0.27920109 0.90677661 2.0026939
-0.29465821 0.90896076 2.0061498
-0.3034023 0.89121711 1.9652382
-0.32519051 0.91166043 2.0091157
-0.332335 0.89105785 1.961771
-0.34607881 0.8891319 1.9558365
-0.36683196 0.90464616 1.988469
-0.37986621 0.90066236 1.9778159
-0.39258873 0.89626282 1.966187
-0.40976796 0.90198833 1.9768679
-0.42674378 0.90688574 1.9856225
-0.43933511 0.90244979 1.9737085
-0.45666596 0.9077214 1.983115
-0.47079608 0.90650004 1.9781415
-0.49072987 0.916188 1.9970633
-0.49847093 0.90321237 1.9661371
-0.52897847 0.9310506 2.0246351
-0.53487444 0.91522628 1.9873546
-0.55917126 0.93089217 2.0189066
-0.5832122 0.94531727 2.0475805
-0.55969995 0.88390321 1.9108176
-0.6041128 0.93014914 2.0086391
-0.62048924 0.93202245 2.0096736
-0.63334662 0.92864662 1.9992305
-0.65367192 0.93612278 2.012238
-0.65727478 0.91985548 1.9737706
-0.66945553 0.91605002 1.9622455
-0.68660498 0.91906112 1.9653627
-0.69893825 0.91563445 1.9545296
-0.73428452 0.94186968 2.0073478
-0.74588907 0.93720132 1.9936358
-0.76156247 0.93773001 1.991002
-0.7779032 0.93904364 1.989961
-0.7804268 0.92394841 1.9538573
-0.81410885 0.94561529 1.9959995
-0.82569253 0.94128639 1.9826932
-0.85993576 0.96247685 2.0234032
-0.85240269 0.93698758 1.9651718
-0.87208956 0.94178933 1.9709833
-0.87953836 0.93343723 1.9489887
-0.89700276 0.9358176 1.9495295
-0.91491222 0.93857509 1.9507588
-0.9281714 0.93654978 1.9418868
-0.95413256 0.94719964 1.9593822
-0.97107786 0.94870287 1.9576677
-0.98023307 0.94266748 1.9402189
-0.99795508 0.94492966 1.9399245
-1.0076799 0.93966568 1.9239941
-1.0623314 0.97582752 1.9933163
-1.0671004 0.96577853 1.9672921
-1.0821418 0.9651832 1.9606547
-1.088643 0.95709664 1.9386501
-1.1003201 0.95372462 1.9262575
-1.1270305 0.96329534 1.9401001
-1.1614476 0.97910047 1.9663695
-1.1732353 0.97565949 1.9535307
-1.1910955 0.97729295 1.950864
-1.2118758 0.9812476 1.9527541
-1.2342137 0.98634416 1.9567995
-1.2665598 0.99920559 1.9761783
-1.2647643 0.98514766 1.9418318
-1.2943828 0.99560446 1.9561337
-1.3043386 0.99086541 1.9402295
-1.2887962 0.96710843 1.8869023
-1.3425629 0.99530643 1.9356638
-1.3580291 0.99477708 1.9278489
-1.3611718 0.98533916 1.9026242
-1.3694053 0.97976315 1.8849461
-1.3894339 0.98265731 1.8836416
1.452575 0.9975217 1.9410421
1.4031295 0.97463274 1.9032141
1.3964885 0.98128998 1.9233571
1.376779 0.97881258 1.9254075
1.3534048 0.97364002 1.921984
1.360538 0.99055427 1.9625149
1.3412296 0.98839486 1.9649845
1.3322074 0.99385607 1.9826673
1.3067741 0.98705769 1.9756153
1.2770053 0.97677106 1.9613346
1.2871529 0.99714375 2.0090866
1.2437775 0.97604346 1.9725529
1.2368197 0.98334241 1.9936918
1.2200552 0.98293525 1.9990495
1.2094182 0.98752016 2.0145836
1.1804291 0.97704071 1.9990326
1.1549599 0.96922404 1.9887797
1.1319802 0.96330601 1.9822893
1.1244155 0.97052455 2.0029678
1.0984559 0.9618448 1.9904939
1.09895 0.97641408 2.0264573
1.0597724 0.95564389 1.988403
1.0518028 0.9628126 2.0087738
1.0218159 0.94973767 1.9864715
1.0058373 0.94947773 1.9910277
0.9983893 0.95739007 2.0128131
0.99348199 0.96803278 2.0403981
0.93062824 0.92163748 1.9465877
0.93640119 0.94279259 1.9963695
0.91550213 0.93735522 1.9894058
0.90491366 0.94246912 2.0049267
0.89229959 0.94561565 2.0161896
0.8617478 0.92952579 1.985983
0.84921068 0.93263608 1.9969755
0.82461601 0.92237425 1.979003
0.79998809 0.91168803 1.9599397
0.79296958 0.92104483 1.9842187
0.78164989 0.92567432 1.998216
0.75874877 0.91649944 1.9820867
0.75053108 0.92504841 2.0045044
0.72947878 0.91780484 1.992365
0.70864707 0.910537 1.9800365
0.6949631 0.91233706 1.9874808
0.68091619 0.91373014 1.9939657
0.66191131 0.90838206 1.9855345
0.64165866 0.90103352 1.9725734
0.639 0.91862911 2.014606
0.61529976 0.90609527 1.9899985
0.60697895 0.91614908 2.0152967
0.58652723 0.90793884 2.000041
0.57558405 0.91440302 2.0172765
0.55394828 0.9037711 1.9964188
0.52838063 0.88595682 1.9594109
0.51884049 0.89476693 1.9816473
0.49667385 0.88168007 1.9549248
0.48276514 0.88290399 1.9600763
0.4709225 0.8881008 1.9740598
0.45583203 0.88731003 1.9745684
0.44393334 0.89288628 1.9892939
0.42705235 0.88848048 1.981537
0.40827158 0.87966752 1.96377
0.39227542 0.87642479 1.9584349
0.38395566 0.89074188 1.9925982
0.36737677 0.88627642 1.9843681
0.34759837 0.87340057 1.9570532
0.33388105 0.87529808 1.9630079
0.32257807 0.88398391 1.9842538
0.30025217 0.86185348 1.9356953
0.29219675 0.88052124 1.979419
0.27784285 0.88117129 1.9822838
0.25987434 0.86979526 1.9577968
0.24397257 0.86440897 1.9468025
0.23356774 0.87904042 1.9811896
0.21618702 0.86761725 1.9563321
0.2034694 0.87461483 1.9732609
0.18635958 0.86235881 1.9463358
0.17381297 0.87093699 1.9667307
0.16039364 0.87629706 1.9797449
0.14499198 0.87081593 1.9680057
0.13103285 0.87374514 1.9753494
0.11975914 0.89752585 2.0301499
0.10277292 0.87916648 1.9888417
0.086996295 0.86681014 1.96113
0.07435219 0.88694704 2.0074437
0.058205508 0.86493123 1.95755
0.044823516 0.88303816 1.999106
0.030251624 0.88387394 2.0011952
0.015467224 0.87426043 1.9793714
0.0010364924 0.8955422 2.0279706
-0.013283046 0.86382562 1.9555724
-0.02806486 0.87946212 1.9911491
-0.042196378 0.87100214 1.9716769
-0.056073435 0.86293143 1.9530271
-0.071154818 0.87290925 1.9754771
-0.085423678 0.87123507 1.9712787
-0.099405892 0.86754227 1.9624101
-0.11457962 0.87386817 1.9763101
-0.127828 0.86573768 1.9571928
-0.14442806 0.8796584 1.9882447
-0.15713657 0.86949861 1.9643738
-0.17385769 0.88138407 1.9906257
-0.18539688 0.86719275 1.9574592
-0.2037587 0.88466084 1.9962426
-0.21685633 0.87846422 1.9811313
-0.23280691 0.88387704 1.9923347
-0.24691381 0.88206422 1.9870487
-0.25905758 0.87383181 1.9671315
-0.26929748 0.86038637 1.9353474
-0.28225657 0.85654175 1.9252871
-0.30450118 0.87989628 1.9767503
-0.31982097 0.88202339 1.9800385
-0.33187038 0.87533891 1.9633281
-0.34559345 0.87344307 1.9573866
-0.36204937 0.87832922 1.9666852
-0.37420711 0.87281322 1.9524393
-0.39364621 0.88405949 1.9759005
-0.40994495 0.88770038 1.9821256
-0.42769253 0.89411837 1.9945036
-0.44366965 0.89652991 1.9977804
-0.46053413 0.90052068 2.0045137
-0.47036952 0.89094734 1.9807613
-0.48595789 0.89252156 1.9819312
-0.50426996 0.89885789 1.993662
-0.52163154 0.90318573 2.0007985
-0.53605443 0.90232599 1.9962696
-0.55165488 0.90344125 1.9960672
-0.56180203 0.8958025 1.976318
-0.576038 0.89490831 1.9715157
-0.5986197 0.90669978 1.9947675
-0.60090756 0.88792795 1.9502078
-0.62648624 0.90364629 1.9819326
-0.6435647 0.90665722 1.9854294
-0.64721632 0.89104587 1.9477985
-0.66916496 0.90075892 1.9659079
-0.68931311 0.90767813 1.9777341
-0.70139527 0.9039076 1.9659982
-0.72460926 0.91434103 1.9852942
-0.74654913 0.92277324 2.0000589
-0.74791664 0.90594828 1.9596145
-0.75902015 0.90134573 1.9458261
-0.79700536 0.92822808 2.0003726
-0.80897987 0.92437375 1.9879934
-0.82327247 0.923262 1.9815005
-0.8392998 0.92410076 1.9791483
-0.85969454 0.92963213 1.9868163
-0.88836914 0.9437654 2.0128396
-0.88445228 0.92338467 1.9646387
-0.90085691 0.92455167 1.9626557
-0.89403093 0.90223581 1.9104574
-0.93569726 0.9287867 1.9624664
-0.95099372 0.92872769 1.9575968
-0.96018451 0.92280245 1.9402169
-0.98894447 0.93557578 1.9623479
-1.0088888 0.93974441 1.9661195
-1.011138 0.92755383 1.935361
-1.0508286 0.94956088 1.9763904
-1.0698169 0.9524883 1.9771795
-1.0725247 0.94104588 1.9478761
-1.086953 0.94006747 1.9403951
-1.1026922 0.94023442 1.9352227
-1.1276089 0.94811326 1.9459232
-1.1262063 0.93394977 1.9109849
-1.1776222 0.96337885 1.9657893
-1.185998 0.95728225 1.9473133
-1.2033441 0.95849138 1.9437677
-1.2373233 0.97274554 1.9667094
-1.2415324 0.96352988 1.941717
-1.2714591 0.97425371 1.9571371
-1.2804229 0.96884745 1.9397861
-1.284592 0.95999157 1.9154909
-1.3283144 0.98054999 1.9502017
-1.3506454 0.98501188 1.9523987
-1.3471706 0.97077179 1.9172244
-1.3688937 0.9748109 1.918435
-1.3653295 0.96095818 1.884146
-1.3793281 0.95964301 1.8746741
1.4727384 0.99464607 1.97322
1.4000915 0.95644253 1.9038922
1.3913186 0.96149224 1.9210415
1.3807573 0.96541029 1.9359012
1.3843579 0.97944117 1.9712533
1.3607646 0.97433829 1.9677815
1.3430008 0.9733361 1.9725351
1.3329343 0.97795641 1.9887186
1.2963165 0.96296877 1.9645696
1.2606279 0.94830096 1.9407982
1.2372611 0.94264489 1.9354028
1.251781 0.96608204 1.9902533
1.2234215 0.95660722 1.9767892
1.2230824 0.96908146 2.0089734
1.20201 0.96524304 2.0070555
1.180566 0.96099728 2.0041518
1.1610745 0.95824492 2.0042617
1.1489265 0.96156114 2.0170841
1.1249777 0.95495474 2.0088313
1.0994414 0.94678998 1.9971055
1.078512 0.94241071 1.9932719
1.0559756 0.93647569 1.9859818
1.0425354 0.93855017 1.995706
1.0155989 0.9283514 1.9790052
1.0182964 0.94534534 2.0206792
1.0004945 0.94354546 2.0218768
0.98032671 0.93942058 2.0179405
0.9515866 0.92681146 1.9954711
0.9632709 0.95380986 2.058929
0.9143942 0.92074102 1.9916421
0.91173112 0.933869 2.0248742
0.87716067 0.91420215 1.9863454
0.87670153 0.9300198 2.025414
0.86605787 0.93541175 2.0416241
0.82357812 0.90598172 1.9810669
0.80172265 0.8985579 1.9687562
0.79874861 0.91241735 2.003392
0.77234375 0.89953017 1.9787742
0.75875598 0.90135431 1.9866437
0.73805016 0.89462459 1.975415
0.72697252 0.89952844 1.9899887
0.72772497 0.9195897 2.0383759
0.7160598 0.92448968 2.0529213
0.67796677 0.89472979 1.9897491
0.65093905 0.87855363 1.9567682
0.65999943 0.91146439 2.0339601
0.63403594 0.89642167 2.00332
0.6152941 0.89110535 1.994434
0.60566336 0.89904815 2.0153852
0.57317472 0.87259871 1.9585128
0.56281948 0.87934077 1.9765828
0.56052357 0.89937806 2.0247796
0.54046917 0.89124221 2.0090282
0.51605761 0.87525254 1.975289
0.50316381 0.87843227 1.9850365
0.47947851 0.86239445 1.95091
0.47069633 0.87299722 1.9774364
0.45581743 0.87261099 1.9788311
0.44669971 0.88359499 2.0061638
0.4253116 0.87022829 1.9777052
0.41233394 0.87373084 1.9877852
0.39494118 0.86779106 1.9761381
0.37860221 0.86379981 1.9688678
0.36355141 0.86254638 1.9678029
0.35267702 0.87150937 1.9901711
0.33768231 0.87062621 1.9898244
0.31321657 0.84413785 1.9303806
0.3069309 0.86645705 1.9833609
0.29205206 0.86553359 1.9826903
0.27492595 0.85750383 1.9655287
0.26321405 0.86640692 1.9874133
0.24531651 0.85479951 1.9618107
0.22972222 0.85027248 1.9524921
0.21687505 0.85598725 1.9668084
0.20374002 0.86129761 1.9801311
0.18816961 0.85633743 1.9695882
0.17404458 0.857678 1.9735762
0.15810895 0.84953219 1.9554882
0.14478423 0.85519034 1.9693526
0.12789558 0.83872449 1.9317929
0.11429106 0.84238338 1.9408761
0.1006091 0.84642583 1.9507865
0.087959073 0.86191219 1.9872218
0.073575258 0.86316717 1.9905297
0.059067309 0.86322474 1.9909848
0.044638336 0.86484993 1.9950138
0.02938427 0.84433687 1.9475063
0.01531725 0.85146815 1.9641941
0.0010201928 0.86688471 2.0000768
-0.013510868 0.86411351 1.9936033
-0.027615014 0.85105717 1.963149
-0.041921817 0.85102695 1.9629102
-0.05862831 0.88733107 2.0470557
-0.070201881 0.84697908 1.9529581
-0.084356174 0.84612221 1.9505923
-0.099262543 0.85196763 1.9637278
-0.11415306 0.85621983 1.9730871
-0.12995525 0.86559212 1.994258
-0.14158776 0.84810066 1.9529957
-0.15807156 0.86021006 1.9803687
-0.17084257 0.85177839 1.9600116
-0.18547267 0.85320294 1.9624493
-0.20070209 0.85698199 1.9702696
-0.21555999 0.85877484 1.973411
-0.22762273 0.84990585 1.9517992
-0.24398634 0.85719472 1.9675181
-0.25904545 0.85934305 1.9712617
-0.27066061 0.8504433 1.9494035
-0.28369018 0.84665793 1.9393101
-0.30448875 0.86531252 1.9809291
-0.31893757 0.86504364 1.9787881
-0.33352438 0.86515623 1.9774545
-0.34747672 0.86368227 1.9723972
-0.36467183 0.87006348 1.9853369
-0.37916008 0.86974323 1.9827812
-0.39594537 0.87452024 1.9918536
-0.40531951 0.86317247 1.9638571
-0.42615339 0.87617016 1.9916075
-0.43437526 0.86323553 1.959883
-0.44950706 0.86442542 1.960434
-0.46761918 0.87109268 1.9734113
-0.48420876 0.87460488 1.9790847
-0.49733087 0.87183154 1.9703484
-0.51150388 0.87100643 1.9659852
-0.52729714 0.87290937 1.9677505
-0.54703176 0.88105738 1.9835992
-0.5665279 0.88840181 1.9975015
-0.58242041 0.88986295 1.9979705
-0.6070047 0.90419841 2.0274401
-0.61351621 0.89156955 1.9959074
-0.61300379 0.86957949 1.9432981
-0.64721817 0.8967281 2.0012772
-0.65008003 0.88019037 1.9608947
-0.66592187 0.88157207 1.960726
-0.69111353 0.89500195 1.9874314
-0.70108408 0.88856775 1.9695818
-0.72367328 0.89806157 1.987224
-0.75007355 0.91180003 2.0141599
-0.76094604 0.9064905 1.9985842
-0.77927107 0.91009313 2.002737
-0.77232802 0.88461536 1.9424188
-0.78556746 0.88278019 1.9344673
-0.82644701 0.91149765 1.993802
-0.83789164 0.9072966 1.9803854
-0.85754168 0.91197181 1.9864119
-0.8725251 0.91160715 1.9812766
-0.89424258 0.91816932 1.9912032
-0.90699327 0.91545832 1.9807652
-0.91382402 0.90696234 1.9576892
-0.9325825 0.91038918 1.9604971
-0.96903831 0.93070239 1.9997529
-0.97565699 0.92216879 1.9764085
-0.98982161 0.9209227 1.9687761
-0.99765468 0.91391504 1.9486951
-1.0209496 0.92106897 1.9589682
-1.0539182 0.93660623 1.9870049
-1.0729557 0.93948787 1.9877995
-1.0761403 0.92860627 1.9592141
-1.0870337 0.92459279 1.9452403
-1.1059573 0.92742622 1.9457132
-1.1162055 0.92300713 1.9307806
-1.1612443 0.94708371 1.9757324
-1.168312 0.93995947 1.9549044
-1.1870795 0.94231272 1.9538929
-1.2010601 0.94085407 1.9448305
-1.2242683 0.94656813 1.9506059
-1.2263374 0.93600088 1.9225186
-1.2370739 0.93223304 1.9085256
-1.2669191 0.94277936 1.9239515
-1.3067895 0.96043307 1.9537295
-1.2907088 0.93703598 1.8993056
-1.2702308 0.91104937 1.8398571
-1.3468497 0.95449334 1.9215983
-1.3589548 0.95173246 1.909211
-1.4098539 0.97588867 1.9510266
-1.3811862 0.94504738 1.8819952
1.4243735 0.94580865 1.9126909
1.4003042 0.94050527 1.9089386
1.3958623 0.94841456 1.9321644
1.380428 0.94895303 1.9402409
1.3607024 0.94651937 1.9421021
1.3378718 0.94184124 1.9391932
1.3234625 0.94304979 1.9483985
1.3136096 0.94757473 1.9644728
1.2863232 0.93948025 1.9540765
1.2617705 0.9332028 1.9473116
1.2681593 0.94994181 1.988947
1.2499647 0.94846165 1.9921638
1.2366388 0.95068544 2.0031447
1.2160348 0.94729865 2.0021245
1.2063941 0.95247638 2.019275
1.1839523 0.94755089 2.0147626
1.1704085 0.94970852 2.025327
1.144478 0.94173461 2.0140026
1.1097888 0.92622316 1.9862093
1.0839986 0.91779709 1.9735023
1.0728958 0.9217416 1.9874955
1.0646689 0.92831141 2.0071743
1.0489792 0.92847437 2.0128515
1.019841 0.91655612 1.9919888
1.0204235 0.93139338 2.029659
1.0034009 0.93037724 2.0325143
0.97756559 0.92102528 2.0168834
0.94648296 0.90634239 1.9892792
0.93103331 0.90638971 1.9940983
0.92360801 0.91438299 2.0164945
0.92080605 0.92730749 2.0498734
0.88643932 0.90834022 2.0121126
0.86397296 0.90110838 2.0003371
0.84746009 0.89993584 2.0019953
0.83378768 0.90179223 2.0103664
0.80482996 0.88687503 1.9809179
0.78619385 0.88297707 1.9761088
0.77433747 0.88669002 1.988386
0.7610395 0.88886744 1.99714
0.74541372 0.88835943 1.9997426
0.71973616 0.87560165 1.9744244
0.70956028 0.88156122 1.9915355
0.6946519 0.88177222 1.9955064
0.68149799 0.88426912 2.0046232
0.65467215 0.86873686 1.9724271
0.64021969 0.86928385 1.9768901
0.63954693 0.88901132 2.0253093
0.62364095 0.88800895 2.0261328
0.60012293 0.87584704 2.0011778
0.58702195 0.87865496 2.0105803
0.57582229 0.88453084 2.027009
0.54587209 0.86114383 1.9757364
0.52857649 0.85697681 1.9687426
0.51603526 0.86050028 1.9794775
0.49865121 0.85591793 1.9713439
0.48839447 0.86366224 1.9917568
0.47850496 0.87255913 2.0148203
0.45579594 0.85789984 1.9829848
0.4383418 0.85248524 1.9725572
0.42452198 0.85400921 1.9782269
0.41027364 0.85474896 1.9819983
0.39241415 0.84774226 1.9675797
0.38289252 0.85890126 1.9955901
0.36568719 0.85302705 1.9836582
0.35457206 0.86146134 2.0051908
0.33033156 0.83735549 1.9502958
0.3142156 0.83259308 1.9406823
0.30719358 0.85261893 1.9892627
0.28258976 0.82341057 1.9219985
0.27427623 0.84109473 1.964977
0.24689962 0.79904217 1.867197
0.24677248 0.84541631 1.977692
0.22885276 0.83281344 1.9491265
0.21466036 0.83300197 1.950648
0.20438184 0.8494848 1.9905778
0.18798392 0.84110951 1.9717469
0.17210971 0.83388376 1.9555451
0.15853882 0.83752048 1.9649435
0.14444025 0.83881497 1.9687389
0.12987368 0.83737755 1.9660026
0.11497917 0.83320731 1.9567262
0.10196424 0.84340453 1.9813906
0.086743593 0.83571112 1.9636304
0.072020814 0.83072543 1.9522069
0.057846431 0.83116961 1.9535731
0.043982781 0.83782214 1.9695798
0.029271908 0.82696724 1.9440378
0.015031636 0.82154292 1.9312921
0.0010038504 0.83865726 1.9718851
-0.013293709 0.83593041 1.9653937
-0.027343633 0.82852584 1.9477501
-0.041763064 0.83355063 1.9594886
-0.05572648 0.82923251 1.9490227
-0.070065588 0.8311227 1.9531958
-0.085374646 0.84194076 1.9784414
-0.10165074 0.85779738 2.0155356
-0.11435653 0.84332526 1.9807527
-0.12988886 0.85060471 1.9973894
-0.14124754 0.83183849 1.9523332
-0.15544829 0.83171225 1.9513161
-0.16995913 0.83312738 1.9538733
-0.1843439 0.83375335 1.9544936
-0.19957948 0.8378613 1.9632661
-0.21465473 0.84079093 1.969178
-0.23003793 0.8444832 1.9768116
-0.24228589 0.83690953 1.9578025
-0.25534266 0.83281863 1.9469512
-0.27516043 0.85004658 1.9862422
-0.28921798 0.84864354 1.9815668
-0.30516547 0.85265535 1.9895571
-0.31761223 0.84696591 1.9746671
-0.32393813 0.82616234 1.9242415
-0.34143624 0.83439994 1.9419509
-0.35772344 0.83913624 1.9513506
-0.37039149 0.83534503 1.9406904
-0.38737828 0.84121358 1.9525744
-0.41305137 0.86484939 2.0058849
-0.42995834 0.86913115 2.0138237
-0.43296659 0.84597015 1.9576621
-0.44825679 0.84752858 1.9591343
-0.46317133 0.84830129 1.9586976
-0.48005998 0.85253292 1.9662232
-0.49529406 0.85366338 1.9664522
-0.51539278 0.86287344 1.9853352
-0.52325004 0.85164666 1.9567633
-0.5453099 0.86351812 1.9816034
-0.55752718 0.85958844 1.9698019
-0.56627643 0.85065109 1.9464018
-0.58810222 0.86131281 1.9681212
-0.60624254 0.86618781 1.9763865
-0.63527083 0.88601571 2.0188739
-0.63622278 0.86667383 1.9713507
-0.66244322 0.88185018 2.0028939
-0.67738217 0.88166732 1.9991513
-0.67456102 0.85887939 1.9437687
-0.70168263 0.87437457 1.9756638
-0.71865004 0.87683398 1.9777263
-0.73952419 0.8838622 1.9900578
-0.75964051 0.88972121 1.9996043
-0.7722947 0.88678175 1.9891335
-0.79330456 0.8933652 2.0000942
-0.81210411 0.89725763 2.0048578
-0.82294309 0.89237374 1.9897858
-0.83682483 0.89090687 1.9823419
-0.85100842 0.88980818 1.9756565
-0.87142754 0.89515352 1.9832902
-0.89087856 0.89933681 1.9882039
-0.90854031 0.90160257 1.9887336
-0.91577876 0.89362156 1.9664352
-0.94009376 0.90229249 1.9809835
-0.9518587 0.89883262 1.9685843
-0.96227604 0.89423013 1.9536268
-0.99398416 0.90924752 1.9817342
-1.012341 0.91177726 1.9822364
-1.03161 0.91503954 1.9842308
-1.0526879 0.91978478 1.9893395
-1.0651633 0.91698444 1.9779106
-1.0713322 0.90891504 1.9550112
-1.0933766 0.91435254 1.9613286
-1.1055716 0.91151601 1.9496633
-1.1148927 0.9064219 1.9331005
-1.1524825 0.92413521 1.9654077
-1.1717154 0.92684853 1.9653565
-1.2067881 0.94185197 1.9913768
-1.1934264 0.91915685 1.9370446
-1.2087185 0.91883355 1.9303049
-1.2482572 0.9367134 1.9619169
-1.2572435 0.93150401 1.9446262
-1.2660427 0.92628765 1.9273136
-1.3043925 0.94255376 1.9549018
-1.3053693 0.93174654 1.9257811
-1.3285216 0.93683761 1.9297453
-1.3152504 0.91642851 1.8807973
-1.3735955 0.94581264 1.9347358
-1.3787112 0.93828738 1.9123377
-1.4600686 0.98222488 1.9953257
1.452791 0.94818246 1.9559512
1.4218509 0.93864703 1.9432977
1.3993037 0.93449491 1.9416974
1.3972423 0.94408727 1.9688454
1.3619334 0.93117565 1.9485942
1.3448565 0.93056887 1.9541185
1.3334855 0.93394369 1.9680115
1.2998792 0.92163646 1.9484587
1.2823876 0.92058998 1.9527273
1.2739477 0.92609739 1.9709598
1.259347 0.92720979 1.9797322
1.2333925 0.91988325 1.9702239
1.2348161 0.93305165 2.004914
1.2060766 0.92347527 1.9902991
1.1809331 0.91643095 1.9809935
1.1573951 0.91045672 1.9738537
1.1677333 0.93133497 2.025398
1.1463829 0.92717183 2.0220945
1.1170479 0.9163397 2.0039599
1.1200042 0.93206668 2.044302
1.0926515 0.92266208 2.0290637
1.0711995 0.91803414 2.0242434
1.0558418 0.91856807 2.0307848
1.0379291 0.9168613 2.0322459
1.0109502 0.9069677 2.0152745
0.97612303 0.88960761 1.9813519
0.98843896 0.91534519 2.0441275
0.94372785 0.88825083 1.9879433
0.94155842 0.90096188 2.0213768
0.91672593 0.89205033 2.005868
0.88953358 0.88049585 1.9841845
0.87457824 0.8808614 1.9894341
0.86251432 0.88420415 2.0013988
0.84853339 0.88566738 2.0090196
0.82955885 0.88187617 2.0045388
0.80792964 0.87506682 1.9930154
0.79161155 0.87385893 1.9942321
0.77965701 0.87751496 2.0065663
0.76102442 0.87365061 2.001492
0.74507695 0.87277412 2.0032158
0.72222751 0.86360806 1.9856459
0.70984715 0.86683697 1.9966933
0.7045927 0.87909681 2.0286875
0.6788184 0.86573076 2.0010138
0.66331702 0.86515689 2.0030029
0.65234977 0.87060761 2.0189874
0.63400245 0.866234 2.0119419
0.61471456 0.86033106 2.0012026
0.60299754 0.86499387 2.0151477
0.58751369 0.86435348 2.0165808
0.56051213 0.84628952 1.9769145
0.54486406 0.84485543 1.9762585
0.53163481 0.84719634 1.9844297
0.52109349 0.85407639 2.0032692
0.49794513 0.84009075 1.9726951
0.49207869 0.85529745 2.0111344
0.47594094 0.85304296 2.0081632
0.45350942 0.83899981 1.9771084
0.44666097 0.85381031 2.0145044
0.42141789 0.83326811 1.9677628
0.40838966 0.83627498 1.9769511
0.39166877 0.83166331 1.9679123
0.38235128 0.84302086 1.996899
0.36466619 0.83609951 1.9821917
0.34530082 0.82459044 1.9564122
0.33489129 0.83439767 1.9815298
0.31945556 0.83200312 1.9773887
0.30926904 0.8437013 2.0069475
0.29294789 0.83899581 1.9971277
0.27311525 0.82321268 1.9606293
0.25886342 0.82343501 1.9624544
0.24437366 0.82288229 1.9623468
0.23256801 0.83186126 1.9850899
0.21704403 0.82784945 1.976529
0.20343255 0.83108062 1.985324
0.18701348 0.8224588 1.9655079
0.17281675 0.82299155 1.9676621
0.15889359 0.82504106 1.9734038
0.14462928 0.8255505 1.9753659
0.12919939 0.81878525 1.9597108
0.1140566 0.81238842 1.9448653
0.10078074 0.81936044 1.9622099
0.087018892 0.82402748 1.9739292
0.071811914 0.81415182 1.9504691
0.058003698 0.81917781 1.9629192
0.043407198 0.81271881 1.9475644
0.029434424 0.81733894 1.9588997
0.015364758 0.8253898 1.9784557
0.0009935213 0.81583458 1.9554126
-0.013317336 0.82309645 1.9729254
-0.027264036 0.81198758 1.9459927
-0.041642454 0.81693083 1.9577665
-0.056165867 0.82147914 1.9685158
-0.06992808 0.81530738 1.953307
-0.084539555 0.81944907 1.962934
-0.096666038 0.8017841 1.9198537
-0.11360934 0.82348859 1.9717274
-0.12809829 0.82453412 1.973666
-0.14381003 0.83244711 1.9920946
-0.15848632 0.83346689 1.9938227
-0.17168877 0.82721466 1.9779549
-0.18724948 0.83241302 1.9896106
-0.20132156 0.83072239 1.9845985
-0.21463753 0.82634735 1.9730607
-0.22843333 0.82425284 1.9669485
-0.23889282 0.81107855 1.9341401
-0.25662923 0.82270205 1.9608687
-0.27187455 0.82553351 1.9663857
-0.28549466 0.82339346 1.9598967
-0.30264589 0.83115554 1.9770821
-0.31991544 0.83851987 1.9932159
-0.33378658 0.83672267 1.9873227
-0.35092062 0.84291339 2.0004671
-0.36132705 0.83309579 1.9752626
-0.37636894 0.83431113 1.9763669
-0.3901993 0.83285028 1.9710103
-0.40637591 0.83632255 1.9773431
-0.41539496 0.8253336 1.949164
-0.43511078 0.83562201 1.9715612
-0.44883728 0.83411467 1.9658152
-0.46398166 0.83525413 1.966284
-0.48133212 0.84017527 1.9756352
-0.49817216 0.84394157 1.9821514
-0.50799173 0.83593947 1.9607514
-0.52960992 0.84725797 1.9849406
-0.54090047 0.8418889 1.9696388
-0.55449742 0.84029824 1.9631933
-0.56675088 0.83680552 1.9522113
-0.59673709 0.85901445 2.0015244
-0.61455339 0.86304736 2.0079956
-0.6228556 0.85384554 1.9833797
-0.64633954 0.86539948 2.007266
-0.64570266 0.84486663 1.9561142
-0.67588758 0.8646788 1.9990336
-0.68265146 0.85431755 1.9715455
-0.70319313 0.86127299 1.984268
-0.70858824 0.84977371 1.9540845
-0.72862518 0.85594487 1.9648
-0.74526888 0.85796237 1.9657946
-0.76230091 0.86033881 1.9675217
-0.79193866 0.8765769 2.0010364
-0.80346906 0.87253737 1.9877723
-0.80009401 0.85276109 1.938411
-0.81357056 0.85133874 1.9311228
-0.85536534 0.87907028 1.9902884
-0.86624366 0.87461245 1.9758196
-0.87658387 0.86977464 1.9604526
-0.90280974 0.88059568 1.9805477
-0.90451127 0.86753392 1.9464431
-0.93339407 0.88054317 1.9712162
-0.95988321 0.89091063 1.9898251
-0.97082734 0.88674968 1.975621
-0.97748882 0.8788684 1.9530499
-1.0044079 0.88916326 1.9710951
-1.0329199 0.90053451 1.9913419
-1.0260026 0.88113904 1.9429953
-1.0560275 0.89357376 1.9653541
-1.0518755 0.87714791 1.9236836
-1.0907305 0.89654219 1.9611019
-1.1083509 0.89818144 1.9591696
-1.1250808 0.89906365 1.9554778
-1.1595563 0.91390777 1.9822131
-1.1221625 0.87247264 1.8860253
-1.1915761 0.9140771 1.9707291
-1.2346801 0.93466884 2.0092881
-1.2220401 0.91307509 1.9563912
-1.2305154 0.9076097 1.9384265
-1.247824 0.90871561 1.934559
-1.2483944 0.89775699 1.9047936
-1.2922162 0.91778809 1.9411702
-1.2966821 0.90971905 1.9174805
-1.3045403 0.90419602 1.8992209
-1.2888702 0.88269109 1.8472408
-1.3512673 0.91452789 1.9076701
-1.3853813 0.92670453 1.9263567
-1.3842866 0.91532034 1.8955945
1.4253054 0.91405982 1.9232787
1.4061325 0.91212094 1.9262624
1.4135773 0.92760372 1.9663606
1.3877449 0.92135704 1.9600292
1.3657985 0.91757226 1.9588227
1.3513026 0.91876215 1.9682221
1.3258172 0.91241819 1.9612391
1.3056495 0.90962243 1.9617975
1.2799475 0.90285313 1.953571
1.2755607 0.91113794 1.9781066
1.2599436 0.91151035 1.9853119
1.2423229 0.91042435 1.9892308
1.2368531 0.91833138 2.0129173
1.1965593 0.90024877 1.9790506
1.1885812 0.90631932 1.9985322
1.1719586 0.90587407 2.0034914
1.1451609 0.89744264 1.9905127
1.1104062 0.8824504 1.9626384
1.1008865 0.88737077 1.9792544
1.0836322 0.88610905 1.9819165
1.0734129 0.89064735 1.9975911
1.0751289 0.90537179 2.0363233
1.0571567 0.90371144 2.0379207
1.0240929 0.88890076 2.0094602
1.0155251 0.89522189 2.0290046
0.98550951 0.88253665 2.0050271
0.96675408 0.87968862 2.0034015
0.95757842 0.88560724 2.0218298
0.93844545 0.8823607 2.0191081
0.91672146 0.87652665 2.0102906
0.90612322 0.88131297 2.0259304
0.89646262 0.88719487 2.0440814
0.87417936 0.88057166 2.0331187
0.85354137 0.87539536 2.025382
0.83764851 0.87498415 2.028646
0.81379193 0.86608195 2.0119491
0.80076623 0.86858612 2.0218425
0.77696317 0.85926926 2.0038991
0.7695111 0.86802453 2.0283432
0.75147188 0.86495072 2.0248818
0.72345227 0.85002267 1.9933013
0.72400516 0.86874479 2.0411766
0.6915772 0.84784639 1.9951717
0.67612398 0.84729278 1.9972469
0.64389521 0.82521456 1.9480268
0.6322276 0.82907397 1.9603732
0.63092852 0.84703708 2.0063365
0.62143493 0.8546055 2.0275068
0.60217512 0.848786 2.016603
0.57770419 0.83513534 1.9868065
0.55620688 0.82517904 1.9657112
0.54629046 0.83233041 1.9856042
0.53183478 0.83277047 1.9893118
0.52175432 0.8402819 2.0099926
0.51005512 0.84555084 2.0252316
0.49707279 0.84894687 2.0359004
0.46637011 0.82134658 1.9715295
0.45799297 0.83255374 2.0009177
0.43767917 0.82208592 1.9777412
0.42369002 0.82318592 1.9825131
0.40538132 0.81567293 1.9662924
0.39288905 0.81974053 1.9781258
0.38145807 0.82641941 1.9962622
0.36214244 0.81586784 1.972376
0.34750202 0.81540984 1.9729857
0.33715811 0.82543093 1.9990968
0.32543206 0.83282316 2.0187545
0.29609811 0.79371715 1.9247103
0.28746021 0.80895627 1.9633889
0.27346843 0.809937 1.9671483
0.25919825 0.81015599 1.9689749
0.24491678 0.81036329 1.9707035
0.22731328 0.79892075 1.9437934
0.21391787 0.80173075 1.9517534
0.19901681 0.79889625 1.9457949
0.18656039 0.80619228 1.9646417
0.17271957 0.80821902 1.9704882
0.15865748 0.80948287 1.9743943
0.14454859 0.81073546 1.9782056
0.12978983 0.80821723 1.972674
0.11377552 0.79628783 1.9439124
0.099452637 0.79449588 1.9400165
0.087010525 0.8096137 1.9776787
0.071905479 0.80103004 1.9569285
0.056967944 0.79055297 1.9314395
0.043729577 0.80451053 1.9660569
0.029679509 0.80980653 1.9792782
0.014942881 0.78876144 1.9275465
0.00098409317 0.794034 1.9405729
-0.013173594 0.80004716 1.955356
-0.027440988 0.80303949 1.9626291
-0.041618604 0.80225885 1.9605398
-0.056055635 0.80560344 1.9685419
-0.070019148 0.80216652 1.9597745
-0.084649444 0.80623937 1.9694299
-0.099653073 0.81217968 1.983608
-0.11248981 0.80118841 1.9560472
-0.12665954 0.8010897 1.9552276
-0.14108808 0.8024829 1.9580084
-0.15738179 0.81325918 1.9837838
-0.17079978 0.80861443 1.9715761
-0.18516901 0.80884349 1.9712791
-0.1987097 0.80568004 1.9625834
-0.21382315 0.80889034 1.9694657
-0.22714052 0.80532932 1.9596637
-0.24179143 0.80663794 1.9617374
-0.25565088 0.80530739 1.957273
-0.26606452 0.79383647 1.9279189
-0.27871707 0.7898615 1.916871
-0.30053464 0.81099832 1.9671562
-0.31799737 0.81899178 1.9851884
-0.33451927 0.82397074 1.9957615
-0.34660861 0.81807166 1.9797132
-0.35865095 0.8125394 1.9645115
-0.37668017 0.82047415 1.982048
-0.3933762 0.82502371 1.9912432
-0.40060812 0.81010908 1.9530491
-0.42454672 0.8288421 1.9965318
-0.43309355 0.81727779 1.9663808
-0.4473666 0.81691772 1.9633566
-0.46626395 0.82476008 1.9801072
-0.47520146 0.81504339 1.9543064
-0.49253255 0.81987149 1.9635962
-0.50495172 0.81648082 1.9529706
-0.52957213 0.83245844 1.9889258
-0.53671902 0.82084733 1.9583677
-0.55220425 0.82226461 1.9590954
-0.56542253 0.82032013 1.9516784
-0.58618796 0.82914841 1.9699956
-0.59378541 0.81937462 1.9436992
-0.61785424 0.83225393 1.9714794
-0.64433277 0.84770364 2.0052164
-0.65056181 0.83641541 1.9751284
-0.65432847 0.82253438 1.9388907
-0.67658651 0.83199662 1.9580561
-0.70346493 0.84661627 1.9892813
-0.70728856 0.83345836 1.9546505
-0.72794503 0.84026855 1.9671676
-0.75535417 0.85444427 1.9968957
-0.75727141 0.83979362 1.9586598
-0.77122635 0.83879966 1.9525181
-0.76061064 0.81162459 1.8850057
-0.79653579 0.83419889 1.9339249
-0.80923331 0.83206809 1.9249412
-0.82111758 0.82919222 1.9141675
-0.85918534 0.85239398 1.9638993
-0.85057843 0.8292883 1.906026
-0.9031778 0.86562842 1.9857386
-0.91226393 0.85974753 1.9676088
-0.92271763 0.85532737 1.9528234
-0.94423908 0.86114359 1.9615067
-0.9687891 0.86949325 1.9758483
-0.97996134 0.86576289 1.9624199
-0.99476689 0.86530775 1.9564177
-1.0329381 0.88488322 1.9958693
-1.049735 0.88583636 1.992793
-1.0612944 0.88240713 1.9797157
-1.0802604 0.88514596 1.9805081
-1.0916564 0.88169253 1.9672613
-1.1111153 0.88475674 1.968593
-1.1334213 0.88997138 1.9746139
-1.1474661 0.88864517 1.9659044
-1.169015 0.89308774 1.9699562
-1.1882904 0.89569795 1.969808
-1.1795087 0.87736934 1.9232775
-1.2108322 0.88896155 1.9428279
-1.20031 0.8699283 1.8948892
-1.2152649 0.86960804 1.8881001
-1.2616752 0.89152294 1.9297523
-1.2784536 0.89221632 1.924865
-1.2889943 0.88859272 1.9105337
-1.3324676 0.90748549 1.944815
-1.3462616 0.90595567 1.9347776
-1.3583684 0.90333986 1.9223565
-1.3790325 0.90640938 1.9220511
-1.3882648 0.90198094 1.9056535
1.4581538 0.91856909 1.9726087
1.4452275 0.9208824 1.9849123
1.4115564 0.9098776 1.9681402
1.4050812 0.91635013 1.9893557
1.3781554 0.90948093 1.9813007
1.3556302 0.90538543 1.9791725
1.3253994 0.89598107 1.9651682
1.3201591 0.90344667 1.9883612
1.2851175 0.89044988 1.9660509
1.2701058 0.89117831 1.9741127
1.2510632 0.88906097 1.9757322
1.2419016 0.89400166 1.9930984
1.2179726 0.88830179 1.9864737
1.1990092 0.88612002 1.9876417
1.1715572 0.87752122 1.9741502
1.1448359 0.86924189 1.9611893
1.1595322 0.89261621 2.0202255
1.1127027 0.86861891 1.9711454
1.0981979 0.86953086 1.9788029
1.1183267 0.89828819 2.0504289
1.0764959 0.87739086 2.0078297
1.085104 0.8975932 2.059917
1.0584558 0.88880181 2.044955
1.0114783 0.86240703 1.9888932
0.98817408 0.85568762 1.9782815
1.0022469 0.881634 2.0438085
0.97881109 0.87489039 2.0330102
0.96668196 0.87819749 2.0456424
0.90527922 0.83610618 1.9514344
0.92284405 0.86675793 2.0282013
0.87664574 0.83754623 1.9637536
0.88679051 0.86208409 2.0262129
0.8558951 0.8468889 1.9945434
0.84274471 0.84901911 2.0038464
0.82880229 0.85041529 2.0113413
0.80474812 0.84129322 1.9936517
0.79801255 0.85027349 2.0191114
0.77759284 0.84473962 2.0097785
0.75800902 0.83991092 2.0020096
0.73793876 0.83433545 1.9923218
0.71805167 0.82873952 1.9824574
0.70977199 0.83658713 2.0049334
0.69122952 0.8324163 1.9983231
0.68051887 0.83770114 2.0145142
0.66179353 0.83313608 2.006762
0.64491791 0.83074182 2.004174
0.61067694 0.80533302 1.9454539
0.61058038 0.82481134 1.9959282
0.58787954 0.81396455 1.97241
0.58177722 0.82613266 2.0050263
0.5639385 0.82183635 1.9973282
0.54893428 0.82155049 1.9993609
0.53369427 0.82088608 2.0003872
0.51291019 0.81141317 1.9796757
0.48074549 0.78285187 1.9118395
0.48457405 0.81294733 1.9883364
0.46526313 0.80488932 1.9707854
0.45363486 0.810031 1.985725
0.43484864 0.80230808 1.9688036
0.42268595 0.80669481 1.9817491
0.40664068 0.80372024 1.9764012
0.38926005 0.7977891 1.9636325
0.38090369 0.81060755 1.9973186
0.36909029 0.81679815 2.0145197
0.34858361 0.80346578 1.9831136
0.33299071 0.80079442 1.97812
0.31822172 0.79995197 1.9776008
0.30221856 0.79578018 1.9687063
0.28756118 0.79491258 1.9679703
0.2733112 0.79513937 1.9698933
0.25977024 0.79756814 1.9772484
0.24454914 0.79482067 1.9716008
0.22974405 0.79316741 1.9686121
0.21599795 0.79519361 1.9747577
0.20180154 0.79573208 1.9771137
0.18627799 0.79071951 1.9654949
0.17310198 0.79566681 1.9787579
0.15878733 0.7958014 1.9798951
0.1445328 0.79629403 1.981861
0.12880863 0.78790563 1.9614755
0.11419129 0.78504759 1.9548885
0.10005228 0.78513455 1.9556222
0.086475134 0.79038578 1.9692552
0.072572559 0.79414731 1.979084
0.058072481 0.79161239 1.973031
0.043847263 0.79239327 1.9752377
0.029538287 0.79168361 1.9736314
0.015354508 0.79613918 1.984934
0.00098210073 0.77839619 1.9403923
-0.013190596 0.78689629 1.9617202
-0.027424896 0.78835893 1.9652973
-0.041691784 0.7894401 1.9678476
-0.055865861 0.78866094 1.9656557
-0.070142247 0.7893492 1.9670814
-0.084679283 0.79224396 1.9739788
-0.098118655 0.78551549 1.9566454
-0.11311027 0.79134393 1.9707676
-0.12664431 0.78681147 1.9588163
-0.14503959 0.81035197 2.0172198
-0.15532701 0.78843015 1.9615186
-0.17022464 0.791623 1.9687386
-0.18497618 0.79369509 1.973075
-0.2036006 0.81089455 2.015219
-0.21369986 0.79411042 1.9721918
-0.22859785 0.79614615 1.9762183
-0.24514185 0.80333549 1.9930538
-0.25669414 0.79427725 1.9692011
-0.26829511 0.7863186 1.9480523
-0.28636166 0.79715729 1.973766
-0.29243621 0.77517247 1.9175246
-0.31417811 0.79482913 1.9650514
-0.33174676 0.80267376 1.9830242
-0.34625539 0.80276847 1.9816152
-0.36456668 0.8113181 2.0011492
-0.3744067 0.80108297 1.9739251
-0.38923222 0.80187911 1.9740441
-0.40296969 0.80045682 1.9685892
-0.41933355 0.8041696 1.9757842
-0.42432824 0.7865597 1.9301465
-0.44568229 0.79943275 1.9598479
-0.46114966 0.80127096 1.9621729
-0.48538581 0.8177712 2.0005593
-0.49607134 0.81114167 1.9818246
-0.5092836 0.80890507 1.973859
-0.52525604 0.81105494 1.976607
-0.53812838 0.80843109 1.9675578
-0.55390197 0.81018937 1.9691857
-0.56895959 0.81083691 1.9680108
-0.58218986 0.80891293 1.9604753
-0.60127282 0.81501633 1.9724581
-0.62276876 0.82402128 1.9913877
-0.64457148 0.83300322 2.010118
-0.65195417 0.82336479 1.9834973
-0.67256463 0.8304894 1.9975048
-0.68195748 0.8237536 1.9778404
-0.70249498 0.83047992 1.9906727
-0.712888 0.82518315 1.9743798
-0.72821391 0.82569605 1.972039
-0.75400496 0.83781683 1.9975051
-0.75755209 0.82523048 1.9635355
-0.77456713 0.82751751 1.965202
-0.80029172 0.83884722 1.9883698
-0.80703729 0.83023232 1.9638052
-0.83138305 0.83970749 1.9822822
-0.82980293 0.82312655 1.9387287
-0.86136734 0.83942848 1.9731627
-0.8757661 0.83872783 1.9671601
-0.89625466 0.84378433 1.9746641
-0.90133423 0.83440721 1.9480709
-0.91161299 0.8300721 1.9333376
-0.93537802 0.83795857 1.9471984
-0.96632373 0.85192502 1.975098
-0.95884359 0.83210766 1.9240174
-0.99600595 0.85104597 1.963191
-1.0107986 0.85058552 1.9570774
-1.0337621 0.85691208 1.9665873
-1.0612983 0.86678672 1.9841255
-1.0722811 0.86305177 1.9701507
-1.0885168 0.8635909 1.9659485
-1.0965466 0.85769659 1.9469401
-1.1279056 0.86995971 1.9693534
-1.1250484 0.85585749 1.931549
-1.1515318 0.86415511 1.9446596
-1.1634071 0.86141503 1.9326186
-1.20137 0.87780863 1.9636749
-1.2477045 0.89981341 2.0070369
-1.2241853 0.8715232 1.9373195
-1.2590237 0.88496935 1.9611406
-1.255639 0.87154824 1.9248769
-1.2836648 0.87999171 1.9372464
-1.2906257 0.87396455 1.9174114
-1.3047204 0.87285531 1.9084285
-1.3389331 0.88507098 1.9286544
-1.3622365 0.88987261 1.932389
-1.3851204 0.8942917 1.9351383
-1.3845537 0.88364244 1.904995
1.4139293 0.87465513 1.9167448
1.4234078 0.8906312 1.9592265
1.4187468 0.89802867 1.9827995
1.3922943 0.89164466 1.9756373
1.3111875 0.84969074 1.8885912
1.3399258 0.87876695 1.9605311
1.3228726 0.87815404 1.9658557
1.2991124 0.87301904 1.9608552
1.300465 0.88484246 1.9942142
1.2656265 0.87202901 1.9715321
1.2496165 0.8720265 1.9778659
1.2380118 0.8751381 1.9912599
1.2223873 0.87545252 1.9981838
1.1956753 0.86772877 1.986487
1.1734724 0.86311305 1.9817934
1.1687491 0.87140352 2.0069084
1.1299319 0.85415143 1.972604
1.1067585 0.8484059 1.9648466
1.1031533 0.8577109 1.9921609
1.0827454 0.8540318 1.9890405
1.085273 0.86860114 2.0287375
1.0755918 0.87368786 2.0461597
1.0298516 0.84919506 1.993584
1.0080862 0.84402245 1.9864522
0.98772657 0.83988369 1.9816359
0.99814886 0.86220318 2.0397568
0.96550596 0.84744269 2.0094562
0.95001203 0.84749734 2.0143888
0.92786473 0.84151947 2.0047591
0.90821546 0.83764315 2.0000389
0.88982111 0.83481067 1.9977132
0.87002426 0.83054018 1.9918023
0.87266409 0.84791774 2.038197
0.86713463 0.85784453 2.0666058
0.82628495 0.83255053 2.0093751
0.81683522 0.83853751 2.0280433
0.78877097 0.8252784 1.9996957
0.76952016 0.82090187 1.9928738
0.75041223 0.81650615 1.9858853
0.73530865 0.81637698 1.9892558
0.72934318 0.82659912 2.0180113
0.70631921 0.81751168 1.9991926
0.69117343 0.81734604 2.0022423
0.67898589 0.82074893 2.0140369
0.65710175 0.81231922 1.9964756
0.64713085 0.81856722 2.0151808
0.62252092 0.80615509 1.9874955
0.61133617 0.81094706 2.0024488
0.60023516 0.81609213 2.0182412
0.58043534 0.80937088 2.0043814
0.56413549 0.8073051 2.0020325
0.54912603 0.80702424 2.0040607
0.52577698 0.79413176 1.9744112
0.51099992 0.79382026 1.9761683
0.50501567 0.80755085 2.0131223
0.49174419 0.81010664 2.0219817
0.46690786 0.7931757 1.9817154
0.44946891 0.78812581 1.971228
0.42881909 0.77692264 1.9451126
0.42321604 0.79314798 1.9881517
0.4075239 0.79094779 1.9846116
0.39046913 0.78584266 1.9736352
0.37636304 0.78650784 1.9771814
0.36222753 0.7871623 1.9806318
0.35158056 0.79576695 2.0041909
0.33141783 0.78264612 1.9725314
0.31730306 0.78326559 1.9756757
0.30288115 0.78314984 1.976881
0.28458822 0.77251452 1.9512355
0.27061254 0.77309763 1.9540613
0.25889656 0.78055823 1.9743514
0.24463193 0.78075856 1.9760768
0.23099858 0.78312409 1.9832587
0.21446548 0.77532059 1.9644109
0.20168269 0.78092921 1.9797385
0.18634075 0.77672881 1.9699384
0.17324129 0.78195411 1.9841626
0.15898895 0.78244984 1.9862293
0.14444785 0.78148156 1.9844813
0.12981938 0.7797752 1.9807729
0.11616652 0.78423214 1.9927748
0.1003215 0.77305752 1.964676
0.086221032 0.77385873 1.9671763
0.072901599 0.78336895 1.9919254
0.058092177 0.77760756 1.9774753
0.044005498 0.78091878 1.9862069
0.029810652 0.7845822 1.9957744
0.015024299 0.76497632 1.9456229
0.0010025043 0.7802459 1.9848059
-0.013319105 0.78024095 1.9847637
-0.027459895 0.77513701 1.9715821
-0.041764498 0.77656293 1.9750711
-0.056173045 0.77870405 1.9803237
-0.070461862 0.77865344 1.9798902
-0.084984839 0.78077126 1.9849435
-0.09921439 0.77997106 1.9824516
-0.11346579 0.7795229 1.9807929
-0.12680589 0.77361518 1.9650897
-0.142244 0.78040808 1.9818307
-0.15625337 0.77883655 1.9770919
-0.17123611 0.78197348 1.9843279
-0.18538344 0.7811051 1.98125
-0.19958885 0.78058869 1.9790037
-0.21367283 0.77969831 1.9757342
-0.22761482 0.77843416 1.9714435
-0.24353559 0.78368694 1.9837112
-0.25761616 0.78276235 1.9801445
-0.27228868 0.78363895 1.9811001
-0.28778437 0.78667796 1.9874874
-0.3021341 0.78644365 1.9854654
-0.31763679 0.78909498 1.9907099
-0.33292663 0.79100913 1.9940001
-0.33906141 0.7719208 1.943902
-0.36187854 0.79082 1.9901532
-0.37883687 0.7959519 2.0013659
-0.39490393 0.79889953 2.0069528
-0.40940478 0.79858124 2.0041931
-0.42292896 0.79644555 1.9967705
-0.43954298 0.80007696 2.0038414
-0.44788158 0.78889722 1.9734788
-0.46363136 0.79106289 1.9767131
-0.47487584 0.78564334 1.9607825
-0.49915963 0.80148005 1.9982151
-0.51823384 0.80828458 2.0128126
-0.52092534 0.78986955 1.9640898
-0.536605 0.79161227 1.9658633
-0.55359131 0.79513991 1.9720131
-0.56710029 0.79361993 1.9654655
-0.58107275 0.79280859 1.9606208
-0.60255975 0.80203897 1.9806989
-0.61553138 0.79976511 1.9720451
-0.63575894 0.80680525 1.9864429
-0.65333891 0.81024128 1.9917816
-0.67487085 0.81831658 2.0084903
-0.68219757 0.80919069 1.9825836
-0.7012046 0.81401289 1.9910575
-0.71848553 0.81667209 1.9940902
-0.72686809 0.80931491 1.97242
-0.75558585 0.8244406 2.0058591
-0.7591548 0.81207061 1.9717975
-0.78333622 0.82180166 1.9917527
-0.79954511 0.82295895 1.9906377
-0.81331635 0.82161093 1.9833379
-0.83276308 0.82594097 1.9897577
-0.84250098 0.82065892 1.9727677
-0.85426593 0.81750232 1.9608916
-0.87344944 0.82143152 1.9660622
-0.89083904 0.82356888 1.9667997
-0.91179383 0.82887584 1.9750464
-0.92856598 0.8302688 1.9737779
-0.9509955 0.83659351 1.9842019
-0.95731246 0.82876819 1.9607339
-0.97369218 0.82976311 1.9582567
-0.99723053 0.83673364 1.9698669
-1.0137471 0.83769065 1.9670814
-1.0069417 0.81963521 1.9193265
-1.0481384 0.84060913 1.9636011
-1.0593842 0.83730233 1.9505233
-1.0781507 0.83994937 1.951349
-1.0901453 0.83732027 1.9397414
-1.1265202 0.8532297 1.9712542
-1.1489043 0.85825193 1.9771981
-1.1662234 0.85940558 1.9740384
-1.1787611 0.85705203 1.962688
-1.1775997 0.84493124 1.9288157
-1.1873121 0.84082621 1.9134229
-1.2043219 0.84192812 1.9099181
-1.2339195 0.85169053 1.9260619
-1.2673771 0.86383963 1.9474084
-1.3006957 0.87559509 1.9676048
-1.2943172 0.86066651 1.9273145
-1.3284409 0.8727054 1.9478389
-1.3246573 0.85985142 1.9122936
-1.3730696 0.88078219 1.9523494
-1.3792516 0.87445164 1.9313099
-1.3956161 0.87464821 1.924773
1.4295609 0.86809278 1.9425056
1.4394481 0.8841356 1.9859632
1.4096022 0.87586302 1.9743656
1.392383 0.87533379 1.9802091
1.3719544 0.87275034 1.9812657
1.3426206 0.86437172 1.9688984
1.3500406 0.87973893 2.0110183
1.313078 0.86620724 1.9865059
1.2954144 0.86522752 1.9908108
1.2923805 0.87411803 2.0179813
1.2451547 0.85296381 1.9750891
1.2424692 0.8621676 2.002872
1.2151046 0.85426319 1.9905342
1.194239 0.85077804 1.9884108
1.1763208 0.84932685 1.9909624
1.1565534 0.84648252 1.9901115
1.1382523 0.84464747 1.9915384
1.0948408 0.823865 1.9477113
1.1094521 0.8467747 2.0079269
1.0925173 0.84592193 2.0114281
1.0874556 0.85437238 2.0371869
1.0634463 0.84796637 2.0271847
1.043488 0.84464568 2.0244703
1.0088847 0.82918638 1.992242
0.99515015 0.83066386 2.0008547
0.97807461 0.82935524 2.0026243
0.95458162 0.82247508 1.990708
0.97099721 0.85031825 2.0635257
0.93601668 0.83333069 2.0267184
0.91969454 0.83266062 2.029717
0.876522 0.80723959 1.9716989
0.87628758 0.82116461 2.0103922
0.85688311 0.81730181 2.0051773
0.84299797 0.81865871 2.0127738
0.83187842 0.82280117 2.0272191
0.80324149 0.80944711 1.998103
0.79347718 0.81496382 2.0158095
0.77948821 0.81627238 2.0229814
0.75624967 0.8077538 2.0055001
0.73652625 0.80271918 1.9965929
0.73306787 0.81557047 2.0324736
0.7074886 0.80383462 2.0065434
0.67838693 0.78750026 1.9688466
0.66617405 0.79048127 1.9796841
0.65674394 0.79697466 1.9993492
0.64196211 0.79712409 2.0029278
0.62550181 0.79514718 2.0010386
0.6096465 0.79386169 2.0008132
0.59515131 0.79432732 2.0049567
0.5754717 0.7877202 1.991012
0.56533045 0.79416537 2.0102372
0.55200511 0.79636461 2.0185869
0.53238964 0.78935951 2.0033364
0.51047134 0.77844334 1.97795
0.49638957 0.7791875 1.9823152
0.46869439 0.75796127 1.9302156
0.4672735 0.7792263 1.9871141
0.4428184 0.7622121 1.9455806
0.43713209 0.77744681 1.9869376
0.41023979 0.75471711 1.9304247
0.40709853 0.77561915 1.9863268
0.39203399 0.77450985 1.9854008
0.37492704 0.76912546 1.9733436
0.36151275 0.7711888 1.9804648
0.34545687 0.76755434 1.9727653
0.33305943 0.77208585 1.9861482
0.31696573 0.76807112 1.9773067
0.30269915 0.76831293 1.9794304
0.28895384 0.76996785 1.9851559
0.2738733 0.76805156 1.9815321
0.2604247 0.77075344 1.9898463
0.24573486 0.76988292 1.9887995
0.23235896 0.77327681 1.9987875
0.21553898 0.76489896 1.9780364
0.20081051 0.76327986 1.9748163
0.1872725 0.76628429 1.9835843
0.17305647 0.7667821 1.9857486
0.15904102 0.7683391 1.99061
0.14483097 0.76917195 1.9935137
0.12974072 0.76499838 1.9832697
0.11453546 0.7590282 1.968255
0.10148621 0.76767802 1.9913815
