# .PCD v0.7 - Point Cloud Data file format
VERSION 0.7
FIELDS x y z
SIZE 4 4 4
TYPE F F F
COUNT 1 1 1
WIDTH 1424
HEIGHT 1
VIEWPOINT 0 0 0 1 0 0 0
POINTS 1424
DATA ascii
-0.29147151 -0.036733933 1.4953005
-0.30275384 -0.036836937 1.4981781
-0.3120617 -0.036700841 1.4911828
-0.323383 -0.03680269 1.4939061
-0.33691758 -0.037142146 1.5063057
-0.34573585 -0.036956854 1.497149
-0.34756315 -0.036057208 1.4587522
-0.34959155 -0.035229351 1.4233166
-0.3375636 -0.033070493 1.3336136
-0.31261232 -0.029796759 1.1986436
-0.31526417 -0.02925729 1.17522
-0.32312417 -0.02921644 1.1720754
-0.33176401 -0.02924639 1.1717672
-0.34124264 -0.029347006 1.174279
-0.34936106 -0.029328641 1.1719208
-0.35833061 -0.02938091 1.1723782
-0.36850494 -0.029527346 1.1765883
-0.37754765 -0.029578602 1.1769019
-0.41497722 -0.031803146 1.2646384
-0.6044125 -0.045334112 1.8064204
-0.64737695 -0.0475436 1.8921813
-0.66925728 -0.048145995 1.9132109
-0.68343723 -0.048181396 1.9114151
-0.70001161 -0.048380885 1.9160937
-0.71494961 -0.048461784 1.9159465
-0.72956812 -0.048518375 1.9147481
-0.74240804 -0.048456777 1.9087753
-0.75813401 -0.048582364 1.9101578
-0.7731722 -0.048660178 1.9095578
-0.7817992 -0.048338849 1.893113
-0.80603844 -0.048977263 1.9144619
-0.82003742 -0.048982337 1.9107294
-0.83999616 -0.049337294 1.9206508
-0.86134636 -0.049760982 1.9331293
-0.87100822 -0.049506638 1.9189675
-0.88302135 -0.049391899 1.9102154
-0.89961261 -0.049532823 1.9113519
-0.91197413 -0.049440108 1.9033191
-0.93080324 -0.049695507 1.9087049
-0.95637727 -0.050297998 1.9273732
-0.98001832 -0.050782587 1.9413078
-1.0002702 -0.051080056 1.9478792
-1.0054854 -0.050612122 1.9249696
-1.0248859 -0.050861344 1.9294965
-1.0510116 -0.051432747 1.9461821
-1.0731168 -0.051794425 1.9546949
-1.0871614 -0.051762544 1.9481237
-1.1021525 -0.051775966 1.9431919
-1.1171321 -0.051788509 1.938144
-1.1310951 -0.051754206 1.9312509
-1.1414632 -0.051558413 1.9182285
-1.16405 -0.051912487 1.9257306
-1.1758779 -0.05178389 1.9150794
-1.2044492 -0.052386723 1.9315612
-1.2460722 -0.053535577 1.9680535
-1.2398697 -0.052626763 1.9282023
-1.2674202 -0.053155188 1.9413946
-1.2875253 -0.053362597 1.9426006
-1.2705224 -0.052045092 1.8879091
-1.2982527 -0.052569263 1.9005857
1.401759 -0.071942173 2.0182512
1.4050463 -0.072939076 2.0535443
1.3445492 -0.07060948 1.9942671
1.3548037 -0.071984343 2.0402493
1.3155037 -0.070727646 2.0110099
1.3170624 -0.071663886 2.0444851
1.3075718 -0.072014391 2.0611584
1.2726336 -0.070954733 2.0370197
1.2558064 -0.070890985 2.0415018
1.2400132 -0.070884727 2.0475609
1.2130022 -0.070228845 2.0345714
1.1932787 -0.069983333 2.0333977
1.1815881 -0.070208676 2.0459223
1.1589823 -0.069782831 2.0392265
1.1384715 -0.069473296 2.0358107
1.1266913 -0.069695376 2.0479984
1.1077079 -0.069471858 2.0469096
1.0906663 -0.069365531 2.0491898
1.0741125 -0.06928765 2.0522177
1.0548462 -0.069030002 2.0497718
1.0307366 -0.068443164 2.0373306
1.0196829 -0.068718702 2.0506468
0.99715883 -0.068217874 2.0405223
0.99030846 -0.068790399 2.0626681
0.97006798 -0.068436161 2.0567501
0.95371932 -0.068349585 2.0588236
0.93574798 -0.068142071 2.0571246
0.9263562 -0.068562761 2.0744643
0.90042573 -0.06775298 2.0541914
0.88345683 -0.067601532 2.0538838
0.86190552 -0.067088179 2.0423763
0.85385239 -0.067625903 2.0630291
0.83472979 -0.067290463 2.0567782
0.81647182 -0.067013808 2.0522215
0.79507315 -0.066464357 2.0391212
0.76999867 -0.065581158 2.0155432
0.76477325 -0.066387035 2.0441918
0.74314368 -0.065772615 2.0287106
0.72779709 -0.065700836 2.0299799
0.71312845 -0.06568858 2.0330219
0.69781113 -0.06561482 2.0340657
0.68630439 -0.065903842 2.046376
0.66817135 -0.065555297 2.0386622
0.64927059 -0.06511429 2.0279388
0.63647383 -0.065279335 2.0361459
0.61780488 -0.064835757 2.02514
0.60611248 -0.065120667 2.0369809
0.58654606 -0.064552881 2.0218623
0.57801551 -0.06520161 2.0450678
0.55997813 -0.064783707 2.0345035
0.51694691 -0.061376374 1.9291227
0.52042013 -0.063455559 1.9974428
0.51299781 -0.06428469 2.0261526
0.49620399 -0.063953258 2.0179539
0.48461449 -0.064292811 2.0310192
0.4699626 -0.064234346 2.0313561
0.4561978 -0.064297244 2.035491
0.43545699 -0.063349351 2.0072875
0.42408589 -0.063746825 2.0219541
0.40524587 -0.063010328 2.0003021
0.39147979 -0.063038394 2.00302
0.37714505 -0.062973566 2.0026963
0.36407149 -0.063122444 2.0091572
0.34820455 -0.062779553 1.9997746
0.33493477 -0.062895894 2.0050614
0.31596684 -0.061905906 1.9747225
0.26923087 -0.055139232 1.7584375
0.23792514 -0.051040389 1.6276786
0.22684337 -0.051087759 1.6302537
0.21508875 -0.050980624 1.6277986
0.20534554 -0.051364761 1.6411308
0.20321487 -0.053809647 1.7209206
0.20820999 -0.058563069 1.8752688
0.19971511 -0.059901241 1.9193975
0.19139394 -0.06148544 1.9714562
0.17854196 -0.061745156 1.98068
0.16623077 -0.062250428 1.9977897
0.15293956 -0.062446833 2.0048573
0.13791186 -0.061902799 1.9879044
0.12392645 -0.061758243 1.9838109
0.10890258 -0.060996212 1.9596596
0.090694308 -0.057982754 1.8625172
0.067027546 -0.049911756 1.6014416
0.052808493 -0.047079738 1.5099602
0.042395737 -0.04708321 1.5102849
0.031939048 -0.04702425 1.5085399
0.021550462 -0.04705704 1.5097219
0.011110688 -0.046934884 1.5058357
0.00072734192 -0.046966147 1.5068754
-0.0096379593 -0.046842474 1.5028471
-0.020053551 -0.046964739 1.5067434
-0.030522747 -0.047086239 1.5105686
-0.0409378 -0.047083639 1.510325
-0.051216356 -0.046956945 1.5060141
-0.061599668 -0.046952832 1.5056292
-0.071885496 -0.046886317 1.5031767
-0.082248732 -0.046880707 1.5026507
-0.092912443 -0.047028437 1.5070425
-0.103369 -0.047052111 1.5073702
-0.11375972 -0.047044236 1.5066297
-0.12398237 -0.046974007 1.5038258
-0.13390757 -0.046810661 1.4979663
-0.14214532 -0.046123214 1.4751271
-0.14977248 -0.045343008 1.449264
-0.1553178 -0.044070054 1.4074696
-0.17608768 -0.04701215 1.5016916
-0.18680291 -0.047091387 1.5034311
-0.19742113 -0.04713909 1.5041037
-0.20900594 -0.047401216 1.5116342
-0.21799895 -0.047078576 1.5002794
-0.22952954 -0.047308378 1.5066637
-0.23991106 -0.047291636 1.5050625
-0.25109401 -0.047427669 1.5083215
-0.26047096 -0.047225341 1.5006624
-0.27098691 -0.047237176 1.4998342
-0.28077313 -0.047125645 1.495002
-0.29277882 -0.047381289 1.5018841
-0.30293101 -0.047329661 1.4988713
-0.31305599 -0.04727738 1.4957906
-0.32336283 -0.047255062 1.4936192
-0.33365512 -0.047232077 1.4913778
-0.34727368 -0.047667049 1.5036818
-0.35465306 -0.047245231 1.4886296
-0.36066365 -0.046670444 1.4686913
-0.3596251 -0.045240868 1.4215924
-0.35422236 -0.04335456 1.3600591
-0.32471243 -0.038694948 1.2107425
-0.32336688 -0.037544757 1.1728122
-0.33282006 -0.037674569 1.1753899
-0.34011942 -0.037560191 1.170207
-0.35103294 -0.037840869 1.1774452
-0.35830891 -0.037725486 1.1721489
-0.36907321 -0.037974268 1.1782678
-0.39382094 -0.039618727 1.2281272
-0.57926846 -0.057006128 1.7711719
-0.64498276 -0.062120609 1.9284464
-0.6569761 -0.061955556 1.9202056
-0.66397381 -0.061335772 1.8977264
-0.69041437 -0.062500916 1.9308213
-0.70916659 -0.062937975 1.9410881
-0.71143681 -0.061923593 1.906194
-0.73447329 -0.062720902 1.9274584
-0.74488306 -0.062430359 1.9149241
-0.75662428 -0.062259961 1.9060575
-0.78616732 -0.063534312 1.9416397
-0.80032128 -0.063542068 1.9380563
-0.81677878 -0.063729286 1.9399031
-0.83682775 -0.064185627 1.9498907
-0.83835542 -0.063229829 1.9165965
-0.85280836 -0.063264251 1.9135413
-0.88039762 -0.064256325 1.9395415
-0.89047033 -0.063958727 1.926182
-0.89786845 -0.063481353 1.9073404
-0.92908663 -0.064676873 1.9390409
-0.94032645 -0.064466447 1.9281095
-0.95985389 -0.064822003 1.9341522
-0.97817075 -0.065086544 1.9373342
-0.99385881 -0.065171033 1.9350096
-1.0196851 -0.065908387 1.9520824
-1.0350794 -0.065960176 1.9485505
-1.0363146 -0.065120801 1.9184655
-1.0749671 -0.066623449 1.9577981
-1.0870984 -0.066463962 1.947716
-1.0898319 -0.065741859 1.9210073
-1.1170672 -0.066497304 1.937736
-1.1465982 -0.067368008 1.9576339
-1.1413966 -0.066201843 1.9178218
-1.1572984 -0.066273734 1.9141773
-1.1836097 -0.06693247 1.9274751
-1.2196306 -0.068117224 1.9557981
-1.2342994 -0.068095066 1.9490105
-1.246786 -0.067954533 1.9387411
-1.2515852 -0.067403331 1.9166458
-1.2583389 -0.066969126 1.8979162
-1.2748872 -0.06706024 1.8941479
-1.3161203 -0.068432763 1.9266486
1.3982515 -0.087638743 2.0127614
1.3841655 -0.087752268 2.0223956
1.3683486 -0.087757416 2.0294385
1.329953 -0.086297594 2.0021489
1.3377205 -0.08783409 2.0448313
1.3218117 -0.087834306 2.051512
1.2936291 -0.087008998 2.0386193
1.278861 -0.087076709 2.0466661
1.2536314 -0.086424902 2.0375462
1.2275646 -0.08569815 2.0264611
1.2230936 -0.086479738 2.0512333
1.1831311 -0.084739603 2.0155909
1.1829933 -0.085843563 2.0479851
1.1711746 -0.086118035 2.0604513
1.1456645 -0.085379571 2.0483847
1.1313995 -0.085470408 2.0562356
1.1090465 -0.084944256 2.0490191
1.0891867 -0.084596977 2.0460086
1.0717309 -0.084429152 2.0472538
1.0538604 -0.08422336 2.0474644
1.0360438 -0.084015846 2.047524
1.019609 -0.083915882 2.050122
0.98879921 -0.082611911 2.022918
0.98507679 -0.083565712 2.0513175
0.96660739 -0.08327876 2.0489876
0.95699018 -0.083757453 2.0655656
0.93444592 -0.083101965 2.0538728
0.91170788 -0.082407482 2.0410531
0.89876497 -0.082589976 2.0500095
0.88456953 -0.082661614 2.0561259
0.86840653 -0.08254867 2.0575342
0.84809279 -0.082030311 2.0486491
0.83466858 -0.082171716 2.0562665
0.81494337 -0.081686683 2.0479939
0.7971788 -0.081383854 2.0442076
0.78376031 -0.081521668 2.051486
0.75915009 -0.080478325 2.0286984
0.75504082 -0.081610009 2.0610812
0.73578435 -0.081116982 2.0520761
0.7140612 -0.080326393 2.0353544
0.70613492 -0.081087217 2.0581629
0.68783134 -0.080663413 2.0506163
0.66966701 -0.080237903 2.0429158
0.65285385 -0.079958975 2.0388732
0.63820285 -0.079938225 2.0413773
0.62499857 -0.08010193 2.0485585
0.6080482 -0.079781897 2.043196
0.59258497 -0.079646148 2.0424991
0.58040118 -0.079955399 2.0532329
0.55177081 -0.077956825 2.0041289
0.53282803 -0.077257916 1.9885336
0.5021168 -0.074768908 1.9263353
0.51320201 -0.078538217 2.0266347
0.4980613 -0.078394555 2.0252354
0.48388609 -0.078398883 2.0276146
0.47014996 -0.078476757 2.0318432
0.45486027 -0.078292087 2.029151
0.44194394 -0.078517199 2.0370917
0.42242342 -0.07754492 2.0136445
0.41132098 -0.078104258 2.030195
0.39182976 -0.077053763 2.0045042
0.37693182 -0.076862305 2.0012369
0.36563489 -0.077418625 2.0175304
0.34630519 -0.076250643 1.9884669
0.33147585 -0.076017693 1.9838821
0.29337457 -0.070196219 1.8321354
0.25286198 -0.063244104 1.6503299
0.23919532 -0.062665284 1.6361928
0.22655235 -0.062310334 1.6278867
0.21546078 -0.062367219 1.6303848
0.20409964 -0.062348064 1.6308247
0.19169681 -0.061989799 1.6222535
0.18314011 -0.062908083 1.6473624
0.19097637 -0.069952823 1.8344527
0.18332858 -0.071924187 1.8874364
0.17309611 -0.073105589 1.9194978
0.16087145 -0.073571667 1.9325845
0.15141833 -0.07550396 1.9844551
0.13755751 -0.075403892 1.9824508
0.12422563 -0.075603656 1.9883298
0.10960912 -0.074974231 1.9721684
0.096086726 -0.075021014 1.973868
0.080848798 -0.073523104 1.9345403
0.059478231 -0.06475734 1.7023512
0.042364545 -0.057457548 1.5089293
0.031915519 -0.057385545 1.5071847
0.021548716 -0.057463236 1.5093653
0.011160884 -0.057577662 1.5124747
0.00072967063 -0.05754054 1.511516
-0.0096562123 -0.057314195 1.5054898
-0.020051928 -0.057350535 1.5063878
-0.030480305 -0.057423588 1.5082136
-0.040827256 -0.057345103 1.5059723
-0.051212206 -0.057341006 1.5056583
-0.061675578 -0.057411294 1.5072705
-0.072021462 -0.057367705 1.505816
-0.082188018 -0.057210281 1.5012977
-0.092965826 -0.057465967 1.5076839
-0.10336068 -0.05745725 1.507014
-0.11360155 -0.057372387 1.5042801
-0.12348462 -0.057136178 1.4974937
-0.13195883 -0.056335054 1.4757127
-0.1438418 -0.056999736 1.4926838
-0.15413231 -0.056986593 1.4916672
-0.1661507 -0.057573844 1.5064749
-0.17595837 -0.057370912 1.5003426
-0.18568997 -0.057167206 1.494148
-0.19663279 -0.057338215 1.4978009
-0.20776954 -0.05754577 1.5023646
-0.21968906 -0.057939939 1.5117921
-0.22980939 -0.057845287 1.5082815
-0.23958051 -0.057674825 1.5027299
-0.25074917 -0.057840981 1.5059903
-0.26095808 -0.057781301 1.5032591
-0.27131751 -0.057758264 1.5014437
-0.28294304 -0.057996467 1.5064346
-0.29218781 -0.05774707 1.4985815
-0.30408365 -0.058020767 1.5043918
-0.31445071 -0.057994217 1.5022818
-0.32480359 -0.057966862 1.500101
-0.33449355 -0.057826597 1.4949224
-0.34591037 -0.05798433 1.4974755
-0.36036021 -0.058626208 1.5125871
-0.36771649 -0.058110327 1.4974687
-0.36954579 -0.056774046 1.4609945
-0.37388653 -0.05588552 1.4361804
-0.36306679 -0.052837536 1.3553487
-0.34145144 -0.048415389 1.2390591
-0.33252567 -0.045968965 1.1741418
-0.34036916 -0.04590366 1.1708827
-0.34987772 -0.046060666 1.1733236
-0.36030275 -0.046328209 1.1785595
-0.37790245 -0.047485102 1.2066208
-0.5359183 -0.065841697 1.6765314
-0.63409567 -0.076207399 1.9399424
-0.65406245 -0.076932088 1.95548
-0.66335166 -0.076396815 1.9386605
-0.67178911 -0.075787321 1.9199179
-0.69871694 -0.07724645 1.9538914
-0.70843279 -0.076782778 1.9387307
-0.72734684 -0.07731469 1.9488313
-0.74113417 -0.077291861 1.9447416
-0.75958079 -0.077746779 1.9526734
-0.76938564 -0.077316709 1.9381272
-0.77157956 -0.076150849 1.9049923
-0.79344213 -0.076933041 1.920928
-0.81440747 -0.077602744 1.9338853
-0.82776064 -0.07753668 1.9282554
-0.85142374 -0.078422435 1.9463665
-0.86123323 -0.07802403 1.9322524
-0.88238549 -0.078649528 1.9436076
-0.90248865 -0.079163112 1.9520357
-0.91091299 -0.078652233 1.934925
-0.91786242 -0.078031689 1.915082
-0.93895245 -0.0786139 1.924919
-0.97435319 -0.080358982 1.9632428
-0.97854745 -0.079516836 1.9377302
-0.99787092 -0.079910688 1.9425247
-1.0182314 -0.08037515 1.9489168
-1.0284801 -0.080039576 1.9356691
-1.033879 -0.079341151 1.913563
-1.0595883 -0.080199152 1.9292071
-1.0691042 -0.079824857 1.914861
-1.1024985 -0.081219651 1.9431456
-1.1135124 -0.08095067 1.931154
-1.1294402 -0.081041291 1.9277412
-1.1341993 -0.080338463 1.9052666
-1.1623552 -0.081289709 1.9222388
-1.1902833 -0.082201421 1.9380559
-1.1974539 -0.081674799 1.9195836
-1.2299548 -0.082867652 1.9417183
-1.2327169 -0.082052253 1.9163156
-1.2270392 -0.08070121 1.8783863
-1.2571477 -0.081707895 1.8957316
-1.2636935 -0.081177518 1.8770105
-1.2846223 -0.081572659 1.8797973
1.404933 -0.10400999 2.0219693
1.3907802 -0.10414474 2.0316498
1.368783 -0.10368841 2.0296063
1.3270854 -0.10171144 1.9973265
1.3142025 -0.10192217 2.0081387
1.3265405 -0.10411748 2.058424
1.289255 -0.10242402 2.0311999
1.2713755 -0.10224948 2.0341234
1.2675828 -0.10321762 2.0599158
1.2387844 -0.10214837 2.0446525
1.2163706 -0.10158489 2.0394051
1.1915789 -0.10080564 2.029628
1.1878604 -0.10181209 2.056006
1.1622345 -0.10094266 2.0441415
1.1382898 -0.10019773 2.0346406
1.1245959 -0.10034709 2.043318
1.1113145 -0.10053792 2.0527811
1.0942271 -0.10038494 2.0550895
1.0541302 -0.098086581 2.0129328
1.0614971 -0.10020208 2.0619562
1.0462685 -0.10021546 2.0674272
1.0089048 -0.098077476 2.0279925
1.0109559 -0.099764332 2.06814
0.98370117 -0.098566599 2.0479858
0.96821803 -0.098529398 2.0519826
0.94855678 -0.098059103 2.0467856
0.93806565 -0.098536894 2.0614452
0.92499268 -0.098754697 2.070575
0.90825528 -0.098582014 2.071377
0.88135272 -0.097281493 2.0481575
0.87103307 -0.097798057 2.0633674
0.85675281 -0.097880252 2.0692892
0.83011407 -0.096528284 2.0445328
0.81854212 -0.096911065 2.0566757
0.80071527 -0.09655375 2.0529168
0.78227383 -0.096107468 2.0471411
0.76951927 -0.096356124 2.0561938
0.75531518 -0.09642946 2.0614111
0.73236847 -0.09536729 2.0420589
0.71662611 -0.095219076 2.0423031
0.69705242 -0.094545037 2.0310788
0.68208808 -0.09448082 2.032953
0.6720801 -0.095115259 2.0499179
0.65672928 -0.095004953 2.0506544
0.63607234 -0.094104603 2.0341027
0.61625421 -0.093289435 2.0192776
0.61167264 -0.094796859 2.0550568
0.5933606 -0.094197936 2.044786
0.57899857 -0.094211861 2.047828
0.55066693 -0.091895238 1.9996935
0.52507639 -0.089926355 1.9589944
0.52708673 -0.092705801 2.0224996
0.51315469 -0.09275762 2.0260499
0.49564612 -0.092147455 2.0149469
0.48315045 -0.092460804 2.0241148
0.46742249 -0.092155837 2.0195749
0.45611995 -0.09273155 2.0344195
0.44022012 -0.092379592 2.0286942
0.42666069 -0.092511691 2.0336063
0.40852484 -0.09162645 2.0159023
0.39350554 -0.091402031 2.0127578
0.37689635 -0.090778105 2.0006647
0.36277044 -0.090727367 2.0012228
0.3481442 -0.090542451 1.9987284
0.32131159 -0.087035768 1.9222119
0.27344555 -0.077280633 1.7063085
0.24983869 -0.07380823 1.6301055
0.23817003 -0.073700428 1.6288056
0.22666723 -0.07363575 1.6284128
0.2153105 -0.073614255 1.6289304
0.20420307 -0.073680326 1.6313523
0.19295628 -0.073700905 1.632707
0.18126285 -0.073542826 1.6300131
0.1693072 -0.073250338 1.6242551
0.16644594 -0.077130571 1.7118855
0.16613488 -0.082876742 1.8413408
0.15904671 -0.085914187 1.9101334
0.14687745 -0.086507738 1.9241239
0.13548519 -0.087722242 1.9519902
0.12520286 -0.09000247 2.003721
0.11069888 -0.089436986 1.9915603
0.097330824 -0.089759089 1.9992541
0.082869232 -0.089012727 1.9829028
0.067840092 -0.087242074 1.943485
0.05135439 -0.082267947 1.832056
0.032959417 -0.069998488 1.5566972
0.021490144 -0.067688763 1.5049421
0.011116006 -0.067734957 1.5060524
0.00072673493 -0.067691103 1.5050938
-0.0096616177 -0.067735113 1.5060623
-0.020036815 -0.067689069 1.504962
-0.030397398 -0.067641936 1.503791
-0.040796485 -0.067682676 1.5045468
-0.051005505 -0.067455515 1.499241
-0.061710034 -0.067849778 1.5078413
-0.071967222 -0.067709379 1.5043912
-0.08255852 -0.067879096 1.5078551
-0.092652455 -0.067647666 1.5022703
-0.1032153 -0.067770742 1.5045929
-0.11284573 -0.067315072 1.493891
-0.12144056 -0.066369832 1.4721763
-0.13247462 -0.066800773 1.4812644
-0.14553566 -0.068118595 1.5101604
-0.15442246 -0.067436963 1.4942248
-0.16559255 -0.067775451 1.5010811
-0.1759415 -0.067757703 1.4999158
-0.18652612 -0.067827649 1.5006634
-0.196614 -0.067719102 1.4973743
-0.20707212 -0.067742579 1.4969875
-0.21838771 -0.068030916 1.5024616
-0.22978757 -0.068318024 1.5078512
-0.24002504 -0.068249561 1.5052612
-0.24991298 -0.068091594 1.5006313
-0.26093346 -0.06824249 1.5028293
-0.27217162 -0.068436489 1.5059311
-0.28182057 -0.068231307 1.50011
-0.29216039 -0.068202108 1.498152
-0.30405515 -0.068525366 1.5039603
-0.31279957 -0.068140738 1.4940244
-0.32330754 -0.068152741 1.4928318
-0.3344624 -0.068296082 1.4944922
-0.34409654 -0.068129614 1.4892529
-0.35436344 -0.068094566 1.4868698
-0.36791846 -0.068675272 1.4980069
-0.37970182 -0.068902157 1.5012752
-0.38805851 -0.068511792 1.4909086
-0.38426799 -0.066053949 1.4351099
-0.38130948 -0.06386172 1.385219
-0.35024992 -0.057190791 1.2373003
-0.34199166 -0.054477997 1.1763024
-0.35069233 -0.054531671 1.1758556
-0.36431158 -0.055329848 1.1916043
-0.4935905 -0.073257647 1.5804025
-0.59983647 -0.087044999 1.8779471
-0.63373047 -0.089961253 1.9384242
-0.65085644 -0.090423651 1.9454246
-0.63438374 -0.086296268 1.8529509
-0.68221456 -0.090906128 1.9495536
-0.69431096 -0.090665035 1.9410754
-0.71552163 -0.091600217 1.9578812
-0.71895468 -0.090267323 1.9257697
-0.73753452 -0.090850607 1.9348198
-0.74836022 -0.090474799 1.9232002
-0.78140134 -0.092749581 1.9682244
-0.79460853 -0.092630878 1.9618975
-0.80587542 -0.092294134 1.9508592
-0.82281071 -0.092606999 1.9535853
-0.83512717 -0.092398211 1.9451393
-0.85254258 -0.09275113 1.9485291
-0.86398673 -0.092453495 1.9380646
-0.87533194 -0.092155039 1.9275333
-0.8849116 -0.091683157 1.9133044
-0.91675359 -0.093496494 1.9470083
-0.91349179 -0.091728985 1.9054745
-0.93582374 -0.092546143 1.9180343
-0.95616925 -0.093145385 1.9258937
-0.97622436 -0.093699098 1.9326677
-0.99097788 -0.093735285 1.9285734
-1.0098653 -0.094155855 1.9323481
-1.0377102 -0.095387951 1.9527434
-1.0437024 -0.094604976 1.9314582
-1.0561492 -0.094420537 1.9224633
-1.0888615 -0.09602832 1.9500923
-1.1019124 -0.095882371 1.9416641
-1.1168885 -0.095905572 1.9366149
-1.1278353 -0.095586665 1.9245397
-1.1249543 -0.094119065 1.8891773
-1.1519725 -0.09515845 1.9044919
-1.1647012 -0.095006227 1.8956323
-1.1915646 -0.095996514 1.9096231
-1.1585976 -0.092201307 1.8277471
-1.2170194 -0.095682658 1.8912737
-1.2329081 -0.095776923 1.8869998
-1.2444057 -0.095531873 1.8759179
-1.2164122 -0.092296101 1.8057772
-1.2749766 -0.095626861 1.8651228
1.3979814 -0.11936887 2.0113275
1.3844606 -0.11957207 2.0217865
1.3669745 -0.11943354 2.0263433
1.3500448 -0.11934093 2.0315883
1.3200527 -0.1180777 2.016593
1.3000269 -0.11768626 2.016423
1.3008374 -0.11919452 2.0490284
1.2696657 -0.11777331 2.0308161
1.2674534 -0.11903641 2.0591478
1.2371136 -0.11765637 2.0413244
1.2243887 -0.11793775 2.0524004
1.2075515 -0.11782515 2.0564923
1.1718367 -0.11584342 2.0275249
1.1714447 -0.11734729 2.0599174
1.1546625 -0.11722773 2.0635836
1.138849 -0.11720461 2.0688674
1.116403 -0.11648879 2.0617123
1.0936494 -0.11572027 2.0534618
1.0835065 -0.11628322 2.0689216
1.0563893 -0.1150144 2.0514307
1.0443686 -0.11537606 2.0631149
1.0260508 -0.11504248 2.0621915
1.0021316 -0.11406126 2.0494311
0.98961979 -0.1143682 2.0598776
0.9638828 -0.11313245 2.0422094
0.95931417 -0.11438147 2.0696509
0.92440009 -0.1119943 2.0306804
0.92287374 -0.11364021 2.0652807
0.9093585 -0.11384007 2.073396
0.88440162 -0.11259011 2.0547867
0.86939967 -0.11258624 2.0589609
0.85324752 -0.11243067 2.0602534
0.83189565 -0.1115722 2.0484519
0.81405371 -0.11116181 2.0448146
0.79810816 -0.11100002 2.0456851
0.78502709 -0.11123802 2.0539031
0.76943964 -0.11112318 2.0554833
0.75011545 -0.11045362 2.0466223
0.73229253 -0.10998278 2.0413568
0.71655148 -0.10981181 2.0416019
0.70245504 -0.10989099 2.046454
0.68201685 -0.10896037 2.0322578
0.66737288 -0.10893514 2.0349727
0.65212113 -0.10880738 2.0356786
0.63037956 -0.10756643 2.0152874
0.62342823 -0.1088502 2.0424869
0.60368335 -0.10790817 2.0275419
0.59219176 -0.10843148 2.0402546
0.5762381 -0.10814346 2.0375199
0.55245143 -0.10633308 2.0057616
0.54350501 -0.10735898 2.0278242
0.53403401 -0.10833381 2.0488911
0.51723945 -0.10783587 2.0418339
0.50364733 -0.1079962 2.0472567
0.48563117 -0.10718947 2.0341251
0.46983182 -0.10683804 2.0296047
0.45411777 -0.1064847 2.0249646
0.43996203 -0.10648578 2.0270395
0.42437425 -0.1061288 2.022172
0.40848029 -0.10566806 2.015229
0.3951748 -0.10586796 2.0209098
0.37612078 -0.10448568 1.9960712
0.35972399 -0.10376385 1.9838465
0.34521347 -0.10355023 1.9813337
0.29104412 -0.090928592 1.7393038
0.2613506 -0.085190967 1.6297936
0.24951115 -0.085016906 1.6275887
0.23914601 -0.085352503 1.6351827
0.22664203 -0.084920146 1.6278721
0.21502714 -0.084793054 1.6264092
0.2038115 -0.084818035 1.6278378
0.19247012 -0.08479055 1.6281979
0.18178946 -0.085068844 1.6344361
0.17041685 -0.085038774 1.6346447
0.15799575 -0.084444031 1.6238397
0.14937995 -0.085947737 1.6537263
0.15302619 -0.095340237 1.8368456
0.14135458 -0.096024036 1.8507924
0.13286208 -0.099217735 1.9134854
0.12123216 -0.10051439 1.9392663
0.11024629 -0.10273258 1.9829262
0.09664499 -0.10279634 1.9846293
0.082942642 -0.10275593 1.9842442
0.069803096 -0.10353435 1.999735
0.055595245 -0.10272142 1.9841914
0.040451325 -0.099085979 1.9136332
0.023266589 -0.084524043 1.6302665
0.011136644 -0.078268789 1.5085509
0.0007271301 -0.078115627 1.5055951
-0.0096985828 -0.07842283 1.5115566
-0.020100364 -0.078318439 1.5094576
-0.030453911 -0.078161523 1.5062897
-0.040845472 -0.078157194 1.5060463
-0.051235072 -0.078151621 1.5057321
-0.061581757 -0.078093514 1.5043492
-0.072148085 -0.078290515 1.5078838
-0.082332961 -0.078076109 1.5033673
-0.092824608 -0.078168049 1.5047638
-0.10320368 -0.078156225 1.5040952
-0.11335437 -0.077989422 1.5003679
-0.12321498 -0.07766775 1.4935868
-0.13149093 -0.076474205 1.4698308
-0.13906868 -0.075075097 1.4420565
-0.15582827 -0.078488141 1.5076385
-0.16589932 -0.07831528 1.5035615
-0.17649789 -0.078397132 1.5043783
-0.18735917 -0.078580052 1.5071037
-0.19749331 -0.078454778 1.5038095
-0.20813313 -0.078532889 1.5044056
-0.21893249 -0.078660853 1.5059159
-0.22976211 -0.078787513 1.5073493
-0.24077725 -0.07896398 1.5096923
-0.25053528 -0.078730658 1.5040727
-0.26191989 -0.079006694 1.5082337
-0.27249354 -0.079026237 1.5073946
-0.28178966 -0.078687608 1.4996089
-0.29231775 -0.078704923 1.4986316
-0.30421799 -0.079077713 1.5044361
-0.31458983 -0.079041578 1.5023252
-0.32473806 -0.078953408 1.4991667
-0.33529028 -0.078965925 1.4978906
-0.34472737 -0.078723013 1.4916731
-0.35547194 -0.07878419 1.4912298
-0.36646309 -0.078894965 1.4916798
-0.37699249 -0.07890293 1.4901121
-0.38702008 -0.078808285 1.4865365
-0.42899367 -0.085052229 1.6035684
-0.42928818 -0.082924373 1.5610931
-0.39163566 -0.073756546 1.384999
-0.3642748 -0.066927567 1.2536582
-0.35657942 -0.063951261 1.1955737
-0.47193864 -0.08266893 1.5478226
-0.5871101 -0.1005023 1.8823148
-0.61425495 -0.1028087 1.9230059
-0.6404444 -0.10485826 1.9586617
-0.61113691 -0.097927712 1.8253298
-0.61697412 -0.096800409 1.8012488
-0.68279892 -0.1049386 1.9507712
-0.70526379 -0.10622034 1.971467
-0.69569689 -0.10272213 1.9027508
-0.73032963 -0.10575922 1.9560105
-0.74735248 -0.10617964 1.9603064
-0.76087439 -0.10609629 1.9551427
-0.78205323 -0.10706422 1.9693989
-0.79452688 -0.1068271 1.9612141
-0.80276203 -0.10603844 1.9427853
-0.83197057 -0.10799958 1.9750173
-0.83934814 -0.10710835 1.954564
-0.86438924 -0.10846327 1.9753276
-0.86349458 -0.10657272 1.9364679
-0.88878393 -0.1079227 1.9569013
-0.89023727 -0.10638139 1.924427
-0.92427093 -0.1087207 1.9626036
-0.94343078 -0.10926531 1.9679304
-0.94530368 -0.10782164 1.9371264
-0.96666586 -0.10861085 1.9467063
-0.97970575 -0.10845553 1.9391165
-1.0013125 -0.10923933 1.9483436
-1.0129817 -0.10893206 1.9378564
-1.0292183 -0.10911771 1.9361337
-1.0469005 -0.1094493 1.9369177
-1.0665597 -0.10997567 1.9410554
-1.0853623 -0.11040065 1.9432639
-1.1042511 -0.11082298 1.9453032
-1.1202481 -0.11094774 1.9419706
-1.1262143 -0.11008875 1.921239
-1.1395733 -0.10996521 1.9134152
-1.1544249 -0.10998698 1.908066
-1.1723809 -0.11030027 1.9077177
-1.1772463 -0.10938946 1.8859799
-1.1994164 -0.11008919 1.8921682
-1.2125944 -0.10995667 1.8838261
-1.183883 -0.10607406 1.810856
-1.2426302 -0.1100268 1.8727032
-1.2490242 -0.10930592 1.8540896
-1.2742839 -0.11023364 1.8635832
1.3978155 -0.13522634 2.0104461
1.378683 -0.13490726 2.0126457
1.3673687 -0.13535468 2.0262914
1.3454871 -0.13475427 2.02404
1.3389394 -0.13569359 2.0450244
1.3095629 -0.13431409 2.0306923
1.2879072 -0.13370252 2.0278769
1.2853136 -0.13507918 2.0553977
1.258454 -0.13390814 2.043787
1.2390283 -0.1335085 2.0438795
1.2257727 -0.133772 2.0541089
1.2204858 -0.13492326 2.0780513
1.1871048 -0.13295817 2.053519
1.1673815 -0.13249084 2.0520988
1.1380423 -0.13090478 2.0330465
1.1219571 -0.13082074 2.0373414
1.1148553 -0.13179636 2.0582178
1.0925891 -0.13098152 2.0508463
1.0750899 -0.13072303 2.0521226
1.0639936 -0.13124689 2.0656993
1.0263129 -0.12845869 2.0265846
1.0219519 -0.12982 2.0532911
1.0059397 -0.12972005 2.0566781
0.99122435 -0.12978682 2.0626435
0.97266722 -0.12934482 2.0603662
0.95962 -0.1296331 2.06972
0.93416053 -0.12822692 2.0516961
0.91993195 -0.12834154 2.0580604
0.89649671 -0.12715416 2.0432713
0.88939857 -0.12828295 2.0658984
0.86775392 -0.12731636 2.0544543
0.85124916 -0.12708323 2.0548146
0.83553141 -0.1269614 2.0568962
0.81065524 -0.12541819 2.035646
0.80378383 -0.12665501 2.0597703
0.78528881 -0.12607232 2.0540245
0.76795751 -0.12565769 2.0509291
0.74251622 -0.12387381 2.0251763
0.73220557 -0.12459335 2.0405543
0.71843725 -0.12474187 2.0464575
0.70526975 -0.12500304 2.0541577
0.68793106 -0.12452032 2.0494597
0.6706928 -0.12403519 2.044621
0.65839702 -0.12446284 2.0548654
0.64362633 -0.12443145 2.0574093
0.6297226 -0.12457012 2.0627136
0.6055913 -0.12264407 2.0334578
0.59405512 -0.1232371 2.04618
0.57697767 -0.12268151 2.0396159
0.55422723 -0.12086038 2.0117285
0.54959965 -0.12299939 2.0501974
0.53021717 -0.12186266 2.0336046
0.51668906 -0.12204573 2.0391123
0.49908492 -0.12124899 2.0280437
0.48534119 -0.12137087 2.0323737
0.4708918 -0.12131832 2.0336924
0.45948517 -0.12207086 2.0485518
0.44053823 -0.12080414 2.0291924
0.42228541 -0.11964983 2.011626
0.41158018 -0.12062822 2.0301197
0.39797908 -0.12079732 2.0348401
0.38121283 -0.11998272 2.022788
0.35879475 -0.11725855 1.9781792
0.3256065 -0.11065682 1.8674519
0.27777246 -0.098322406 1.6588684
0.26163095 -0.0966231 1.6311458
0.24977945 -0.096425928 1.6289444
0.23882937 -0.096574545 1.632586
0.22770472 -0.096663855 1.6351659
0.21512946 -0.096114457 1.6267822
0.20366266 -0.09602686 1.6262301
0.19244558 -0.096053652 1.6275812
0.18111007 -0.096020989 1.6278634
0.16977952 -0.095986798 1.6280677
0.15797551 -0.095661052 1.6232255
0.14704651 -0.095855847 1.6272479
0.13697416 -0.096687615 1.6421419
0.1305514 -0.10047856 1.7077428
0.12845342 -0.10868151 1.8490226
0.11577695 -0.10875627 1.8508521
0.10506152 -0.11091994 1.8884799
0.096246973 -0.11598642 1.9759042
0.083718225 -0.11750891 2.0024481
0.069482967 -0.11676426 1.9900023
0.055671331 -0.11654047 1.9864379
0.042141825 -0.11695386 1.9937578
0.027893713 -0.11480892 1.9570644
0.012995936 -0.10348172 1.7625437
0.00073276454 -0.089189157 1.5170064
-0.0096846437 -0.088723704 1.5089893
-0.020110929 -0.08877977 1.509886
-0.03043 -0.088485807 1.5047228
-0.040893797 -0.088655196 1.5074733
-0.05139653 -0.088823162 1.5101523
-0.061452523 -0.088292614 1.5007885
-0.071997061 -0.088515826 1.5043229
-0.082322352 -0.088447168 1.502799
-0.093116969 -0.088841684 1.5091774
-0.10298741 -0.088363782 1.5005383
-0.11281852 -0.087942675 1.4928318
-0.12579967 -0.089841813 1.5248619
-0.13332334 -0.087851077 1.4901574
-0.14474191 -0.088528402 1.5011384
-0.15530014 -0.088624023 1.5021018
-0.16555287 -0.088544242 1.5000144
-0.17601462 -0.088579081 1.4998413
-0.18672551 -0.08872842 1.5015779
-0.19721074 -0.088760421 1.5012585
-0.20837769 -0.089080632 1.5058123
-0.21918921 -0.089225583 1.5073197
-0.23047799 -0.089542709 1.511712
-0.23981252 -0.089106053 1.5032014
-0.25034127 -0.08913108 1.502515
-0.26087189 -0.089154743 1.5017555
-0.27245933 -0.089523822 1.5068195
-0.28230217 -0.089313544 1.5019807
-0.29209191 -0.089102112 1.4970788
-0.30300415 -0.089235887 1.4979875
-0.31475335 -0.089598984 1.5027274
-0.32448837 -0.089383766 1.4976162
-0.33568081 -0.089570925 1.4992654
-0.34423947 -0.089065269 1.4891539
-0.35634533 -0.089480139 1.4945428
-0.36759773 -0.089663081 1.4959558
-0.38034222 -0.090189658 1.503096
-0.42410016 -0.097842738 1.6300085
-0.50362885 -0.11312724 1.8847371
-0.53155994 -0.11633416 1.9361597
-0.54515731 -0.11632203 1.933446
-0.54689705 -0.11384219 1.8893753
-0.54636931 -0.11101992 1.8396267
-0.59165597 -0.11742155 1.9438487
-0.60533834 -0.11740225 1.9407144
-0.62775594 -0.11904024 1.965083
-0.61448187 -0.11398614 1.8781298
-0.57141703 -0.103739 1.7052326
-0.63552642 -0.11297065 1.8553711
-0.69058001 -0.12024809 1.9726399
-0.70718437 -0.12067312 1.9763372
-0.70957446 -0.11870356 1.9404808
-0.73544693 -0.12066254 1.969281
-0.74514443 -0.11994384 1.9539284
-0.75718766 -0.11962242 1.9450544
-0.78122908 -0.12117366 1.9667588
-0.79182655 -0.12062149 1.9539495
-0.81138039 -0.12142909 1.9632565
-0.82224518 -0.12093089 1.9511995
-0.84199011 -0.12173347 1.9602098
-0.85434484 -0.12145863 1.9516399
-0.87187845 -0.12191699 1.9548609
-0.8993479 -0.12372746 1.9797763
-0.91054392 -0.12327716 1.9681091
-0.9216271 -0.1228259 1.9563802
-0.94203442 -0.12361205 1.964425
-0.96086031 -0.12416998 1.9686849
-0.96964329 -0.12343281 1.9521787
-0.99480754 -0.12477193 1.9686662
-0.99257731 -0.12268615 1.9306428
-1.0229791 -0.12463576 1.9565543
-1.0253723 -0.12316605 1.9282674
-1.0425317 -0.12348626 1.9281946
-1.065958 -0.12452981 1.9393702
-1.0711991 -0.12344938 1.9171274
-1.0796195 -0.12275932 1.9009925
-1.1146611 -0.12507454 1.9316221
-1.1195567 -0.1239909 1.9092085
-1.122169 -0.12268543 1.8833803
-1.1111203 -0.11993843 1.8353486
-1.1608074 -0.12373423 1.8881505
-1.1802633 -0.12425353 1.8902664
-1.1806703 -0.12277928 1.8617744
-1.1694574 -0.12014679 1.815695
-1.1701626 -0.11878686 1.7891291
-1.1722063 -0.11759324 1.7651417
-1.177861 -0.11678543 1.7470225
-1.2208806 -0.11965833 1.7842711
1.3993295 -0.15126164 2.0119185
1.3796219 -0.15084411 2.0133076
1.3660758 -0.15109839 2.0236409
1.3431094 -0.15030442 2.0197201
1.3360425 -0.15129204 2.0398464
1.3061607 -0.14968878 2.0246651
1.2973197 -0.15048714 2.0420945
1.2856714 -0.15097553 2.0552571
1.25933 -0.14972919 2.0445101
1.2306309 -0.14816748 2.0292208
1.2113671 -0.1477163 2.0290883
1.2037336 -0.14869003 2.0486138
1.1819812 -0.14792243 2.0438912
1.1642841 -0.14764862 2.0459168
1.1388636 -0.14637475 2.0338354
1.1151078 -0.14528292 2.0241268
1.1028917 -0.14568511 2.0352814
1.0859135 -0.14546072 2.0375397
1.0735682 -0.14585936 2.0485134
1.0652182 -0.14682025 2.0674078
1.0423183 -0.14577447 2.0577493
1.0222608 -0.14510094 2.0532401
1.0058085 -0.14492652 2.0557334
0.99023557 -0.14487536 2.0598979
0.97550529 -0.14494783 2.0657506
0.95949471 -0.14482933 2.0687776
0.93116051 -0.14281692 2.0443981
0.92386001 -0.14401743 2.0662498
0.90275615 -0.14307037 2.0569868
0.88418227 -0.14249896 2.0530372
0.86995566 -0.14262055 2.0590525
0.85189629 -0.14210707 2.0557384
0.8313151 -0.14114708 2.0457942
0.81201589 -0.14037386 2.0384488
0.79105806 -0.13928002 2.0262818
0.76853883 -0.13786484 2.0092585
0.76681215 -0.14019684 2.0472121
0.74344134 -0.13858546 2.027092
0.72607952 -0.13805224 2.0227301
0.71866965 -0.13942802 2.0464964
0.7048533 -0.13959229 2.0523083
0.69194055 -0.13994631 2.0608666
0.66998458 -0.13844696 2.0418258
0.6513499 -0.13758263 2.0320919
0.63643497 -0.13748261 2.0336363
0.61632091 -0.13622877 2.0178809
0.60607499 -0.13714837 2.0344849
0.5950799 -0.1379391 2.049125
0.57851803 -0.1374467 2.0444937
0.5625757 -0.13708007 2.0416582
0.54978091 -0.13748127 2.0502727
0.53339517 -0.13698193 2.0452833
0.51759166 -0.13660857 2.0421014
0.50470006 -0.13700438 2.0504336
0.4868854 -0.13604778 2.0382938
0.47082648 -0.13553876 2.0328159
0.45248002 -0.13431895 2.0164998
0.44026658 -0.1348998 2.0273442
0.42365143 -0.13412572 2.0176003
0.41152254 -0.13476758 2.0292485
0.39278752 -0.13321468 2.0075181
0.37381861 -0.13146479 1.9826852
0.34654438 -0.12654783 1.9095656
0.29749495 -0.11296973 1.7044067
0.2721785 -0.10765013 1.6246874
0.26081064 -0.10762534 1.6255203
0.24974395 -0.10772822 1.6282479
0.23779325 -0.10744143 1.6249754
0.22630811 -0.10734693 1.6245824
0.21483943 -0.1072507 1.624109
0.20473953 -0.10786496 1.6344492
0.19241802 -0.10731218 1.6268876
0.18086536 -0.10714611 1.6251862
0.16965254 -0.10717265 1.6263818
0.15852748 -0.10726235 1.6284943
0.14702532 -0.1070911 1.6265557
0.13580354 -0.10711263 1.6275207
0.12457526 -0.10713245 1.6284088
0.1148504 -0.10857752 1.6511221
0.1142151 -0.11988173 1.8251671
0.10224141 -0.12061189 1.8368636
0.090113044 -0.12134032 1.8484819
0.08080969 -0.12673938 1.9318074
0.069334634 -0.13019045 1.9851695
0.055885237 -0.13071926 1.9935762
0.04230316 -0.13118115 2.0008945
0.028298976 -0.13014796 1.9851712
0.014518899 -0.12917757 1.9703499
0.00090591871 -0.12320668 1.8785965
-0.010222254 -0.10464056 1.5931677
-0.02006853 -0.098990805 1.5062513
-0.030505488 -0.09911675 1.5080744
-0.040968247 -0.099241085 1.5098257
-0.05125463 -0.098974422 1.5055214
-0.061605308 -0.098900877 1.5041391
-0.071939386 -0.098825775 1.5026866
-0.082256392 -0.098749116 1.501164
-0.092738383 -0.098865516 1.5025595
-0.10297252 -0.098720834 1.4999001
-0.10796254 -0.094035029 1.4275142
-0.12171882 -0.097130157 1.4744838
-0.13488899 -0.099314988 1.5074149
-0.14386754 -0.098321497 1.4915584
-0.15487133 -0.098752469 1.4974909
-0.16552912 -0.098922566 1.499375
-0.17679562 -0.099414855 1.5061404
-0.18657684 -0.09906362 1.4999466
-0.19756868 -0.099358343 1.5035864
-0.20794156 -0.099327795 1.5022031
-0.21944246 -0.099813245 1.5086508
-0.22940247 -0.099585548 1.5041583
-0.24008988 -0.099679671 1.5045291
-0.25063068 -0.099707626 1.5038406
-0.26066589 -0.099540241 1.5001281
-0.27242094 -0.10001721 1.506173
-0.28171471 -0.099588685 1.4983923
-0.29356506 -0.10006224 1.5042735
-0.30413744 -0.10008252 1.5032136
-0.31491199 -0.10016575 1.5030575
-0.32486176 -0.099989749 1.4989219
-0.33541813 -0.10000562 1.4976442
-0.34597278 -0.10002003 1.4962926
-0.35790089 -0.10041896 1.5006949
-0.36754692 -0.10017306 1.4953079
-0.38974851 -0.1032676 1.5401967
-0.48657688 -0.12543218 1.8718517
-0.51736987 -0.12985395 1.9360086
-0.53174949 -0.13003476 1.9362818
-0.54508299 -0.12995711 1.9326054
-0.55866802 -0.12994181 1.9297963
-0.57788265 -0.13120535 1.9460375
-0.59215295 -0.13131362 1.9449099
-0.60968298 -0.1321234 1.9541649
-0.61319345 -0.12992653 1.91856
-0.55986118 -0.11604348 1.7092965
-0.57480115 -0.11660143 1.7148997
-0.61746013 -0.12264173 1.8016391
-0.69179797 -0.1345987 1.9755403
-0.69907397 -0.13329025 1.9528933
-0.72037411 -0.1346546 1.9696404
-0.7263307 -0.13315359 1.9440768
-0.74575204 -0.13413106 1.9549257
-0.76140338 -0.13440679 1.9553583
-0.78259003 -0.13563181 1.969594
-0.79730803 -0.13571195 1.9669627
-0.81278843 -0.13591678 1.9660684
-0.81790113 -0.13441077 1.9401938
-0.84070539 -0.13581389 1.9565716
-0.85502815 -0.13582289 1.9525884
-0.88226742 -0.13784972 1.9777025
-0.89430743 -0.13747464 1.9679595
-0.90626019 -0.13709827 1.9581431
-0.93291986 -0.13892373 1.9798968
-0.94062489 -0.13791385 1.9608222
-0.9524678 -0.13753207 1.9507155
-0.98010784 -0.13940869 1.9727637
-0.99154574 -0.13895939 1.9615124
-1.0069627 -0.1390727 1.9581969
-1.0173295 -0.13849527 1.9450153
-1.0294309 -0.1381669 1.9353132
-1.0428675 -0.13802442 1.9281728
-1.0419219 -0.1360084 1.8946527
-1.0579917 -0.13623804 1.8926587
-1.0623287 -0.13497086 1.8696637
-1.0723554 -0.13445042 1.8570906
-1.1289481 -0.13970599 1.9246927
-1.1342124 -0.13855638 1.9031029
-1.1233073 -0.13548565 1.8550063
-1.1616948 -0.13836271 1.8889493
-1.1312215 -0.13306841 1.8104519
-1.1257676 -0.1308105 1.7738621
-1.1386734 -0.13071467 1.7668731
-1.1629463 -0.13191047 1.7773733
-1.1638165 -0.13045485 1.7517767
-1.1826971 -0.13102843 1.7536343
-1.1635493 -0.12742421 1.6991531
1.4172627 -0.1692926 2.0370879
1.4013041 -0.16930877 2.0443792
1.3642076 -0.16674173 2.0200534
1.3572038 -0.16783567 2.0402727
1.3385657 -0.1674998 2.0429263
1.315117 -0.16654661 2.0378573
1.3040491 -0.16715722 2.0519688
1.2833778 -0.16653669 2.0507684
1.2492563 -0.16413353 2.0272498
1.2309664 -0.16377592 2.0289981
1.2228906 -0.16478553 2.0477529
1.2065752 -0.16469659 2.0527034
1.1837968 -0.16371156 2.0462773
1.1547906 -0.16182753 2.0283418
1.141607 -0.16213992 2.0380044
1.1044143 -0.15900418 2.0038166
1.106986 -0.16158581 2.0421312
1.0899558 -0.16133857 2.044421
1.0743337 -0.16129565 2.0492258
1.0596116 -0.16138859 2.055687
1.0403745 -0.16078651 2.0531285
1.0207865 -0.1601114 2.0495067
1.0082785 -0.16054316 2.0600686
0.99095154 -0.1602091 2.0606503
0.96308178 -0.15813357 2.0385094
0.96018994 -0.16015849 2.0695426
0.93184733 -0.1579351 2.0451841
0.91441536 -0.15751837 2.044239
0.90262479 -0.15807573 2.0559535
0.88248456 -0.15716498 2.0483396
0.8675133 -0.15715922 2.0525038
0.85101271 -0.15687141 2.0528684
0.82372856 -0.15455008 2.0262742
0.81996799 -0.1566381 2.0578442
0.80283844 -0.1562023 2.0559719
0.78011143 -0.15464048 2.0390396
0.75870174 -0.15328483 2.024698
0.74060106 -0.15255769 2.018595
0.73802698 -0.15506375 2.0555632
0.71987665 -0.15433259 2.0492604
0.70474839 -0.1542324 2.0513034
0.68931359 -0.15405942 2.052289
0.66679448 -0.15226124 2.0313449
0.65730208 -0.15342392 2.050113
0.63841122 -0.15239583 2.0393155
0.62172765 -0.15185915 2.0350387
0.60966134 -0.15245152 2.0459337
0.59360808 -0.15205151 2.0433409
0.57870007 -0.15193219 2.044466
0.56459588 -0.15202323 2.0483699
0.54610437 -0.15090667 2.03579
0.53581399 -0.15205725 2.0539553
0.52165067 -0.15214203 2.0575645
0.50154424 -0.15044892 2.0368531
0.48496923 -0.14974684 2.0295525
0.46673036 -0.14847299 2.0143445
0.45479584 -0.14918774 2.0262449
0.44776633 -0.1516093 2.0614777
0.42358568 -0.14819157 2.0166371
0.40988362 -0.14833073 2.020458
0.389303 -0.1459019 1.9889363
0.37082449 -0.14411056 1.9660544
0.31696782 -0.12790565 1.7447196
0.28520343 -0.11967847 1.6328307
0.2721357 -0.11893922 1.6239144
0.26076958 -0.1189118 1.6247478
0.24925494 -0.1188111 1.6245161
0.23789878 -0.11877999 1.625191
0.22668147 -0.11881857 1.6267759
0.21506467 -0.11864078 1.6253171
0.20360115 -0.11853258 1.6247662
0.19238742 -0.1185656 1.6261171
0.18105523 -0.11852524 1.6263998
0.16983061 -0.1185546 1.6275967
0.15821487 -0.11829566 1.6247457
0.1471798 -0.11846451 1.6277739
0.1356996 -0.11827336 1.6257573
0.1247061 -0.11851019 1.6296289
0.11311705 -0.11817191 1.6254658
0.10307369 -0.11955182 1.6451142
0.095131375 -0.12401263 1.7075251
0.089713104 -0.13349105 1.8396406
0.077073328 -0.13357683 1.841206
0.067353658 -0.13975552 1.9274156
0.055487815 -0.14342305 1.9786787
0.042045202 -0.14407673 1.9879857
0.028477872 -0.14472814 1.9972018
0.014647864 -0.1440146 1.9873754
0.00095731288 -0.14387247 1.9854337
-0.012376316 -0.13999857 1.9315337
-0.022433659 -0.12228078 1.6850615
-0.030500574 -0.10951053 1.5073626
-0.040908068 -0.10950449 1.5071189
-0.051481623 -0.10985525 1.5117887
-0.061595395 -0.10927206 1.5034291
-0.071975045 -0.10926078 1.5029732
-0.082675464 -0.10967788 1.5084226
-0.092662647 -0.10916133 1.5008541
-0.10295599 -0.10907317 1.4991913
-0.11315638 -0.10891167 1.4964644
-0.12356788 -0.10896344 1.4966512
-0.13381101 -0.10887018 1.4947792
-0.14441352 -0.1090617 1.4968101
-0.15576108 -0.10975258 1.5057122
-0.16658658 -0.11001195 1.50858
-0.17688265 -0.1099117 1.5064174
-0.18727875 -0.1098813 1.505175
-0.19766608 -0.10984926 1.5038621
-0.20817953 -0.109887 1.5034664
-0.21798581 -0.1095657 1.4980617
-0.22921737 -0.1099574 1.502457
-0.24098617 -0.11056144 1.509725
-0.24961689 -0.10973544 1.4972199
-0.26214716 -0.11062122 1.5082605
-0.27114737 -0.11000653 1.4985819
-0.28258345 -0.11038905 1.5025803
-0.29200542 -0.10998553 1.4957206
-0.30409014 -0.1105782 1.5024949
-0.3142553 -0.11045655 1.4994084
-0.32523 -0.11061812 1.5001543
-0.33579823 -0.11063564 1.4988736
-0.34614205 -0.11058041 1.4965465
-0.35738742 -0.11080797 1.4980322
-0.36984923 -0.11138887 1.5042802
-0.4476451 -0.13106665 1.7706996
-0.50319266 -0.14334106 1.9356639
-0.52675217 -0.14609626 1.9707488
-0.54399651 -0.14700338 1.9805794
-0.55709952 -0.14677399 1.9748969
-0.56519401 -0.1452685 1.9518714
-0.5789234 -0.14524858 1.9489216
-0.59466064 -0.14572158 1.9525596
-0.61873835 -0.1481704 1.9827535
-0.61732364 -0.14454134 1.9309372
-0.5579291 -0.12779038 1.7027694
-0.5781756 -0.12960592 1.7244732
-0.64979368 -0.14262106 1.8961445
-0.6867826 -0.14765891 1.9604378
-0.70665145 -0.14888786 1.9735526
-0.72299069 -0.14933948 1.9761716
-0.73628116 -0.14915608 1.9702414
-0.75977093 -0.15100674 1.9912752
-0.7727989 -0.15074806 1.9841642
-0.78064519 -0.14950638 1.9639759
-0.79607427 -0.14973536 1.9632078
-0.79411381 -0.14674293 1.9198672
-0.82740724 -0.15025586 1.9622302
-0.84058291 -0.15005818 1.9555913
-0.85728949 -0.15048695 1.9570971
-0.8793118 -0.15181942 1.9703218
-0.89745891 -0.15245059 1.9742407
-0.91987044 -0.15377456 1.9870664
-0.92264098 -0.15182512 1.9572052
-0.94777912 -0.15355971 1.975136
-0.96668661 -0.15424754 1.9793453
-0.97996598 -0.15403017 1.9717544
-0.99498135 -0.15408805 1.9676393
-1.0018283 -0.15289757 1.947415
-1.0125859 -0.15232947 1.9351573
-1.0134468 -0.15030955 1.9043156
-1.0167668 -0.14870545 1.8788271
-1.0336471 -0.14910138 1.8787786
-1.0467085 -0.14894319 1.8716046
-1.0626644 -0.14919563 1.8695525
-1.056826 -0.14642178 1.8292788
-1.0765859 -0.14722058 1.8340089
-1.0852932 -0.14650686 1.8196596
-1.0938578 -0.14579222 1.8052759
-1.0705782 -0.14090426 1.7389114
-1.1368377 -0.14777623 1.8188113
-1.1202886 -0.14384757 1.7644666
-1.1422675 -0.14490113 1.7718058
-1.1432239 -0.14329456 1.746284
-1.1619983 -0.14393286 1.7483268
-1.1664375 -0.14280133 1.7286298
-1.1544108 -0.1397032 1.6850171
1.4164643 -0.18528062 2.0350392
1.397148 -0.1848529 2.0373802
1.3773147 -0.18434602 2.0387225
1.3564342 -0.18368541 2.0382235
1.3427 -0.18398832 2.0483992
1.3100628 -0.18167713 2.0290937
1.2985173 -0.18227023 2.0423245
1.2689606 -0.18031852 2.0266931
1.2594646 -0.18120432 2.0430737
1.2307692 -0.17931524 2.0278125
1.2155745 -0.17936999 2.0345526
1.2013558 -0.17957202 2.0429001
1.1716872 -0.17743966 2.0243413
1.1555877 -0.17733273 2.028908
1.1414251 -0.17752416 2.0368326
1.1229057 -0.17703395 2.0367839
1.1091727 -0.17729522 2.0453548
1.0874498 -0.17626873 2.0388501
1.0773858 -0.17712973 2.0542533
1.0539913 -0.17579234 2.0438716
1.0388644 -0.17581482 2.0492971
1.0162039 -0.17454401 2.0394151
1.0037591 -0.17501594 2.0499437
0.98348933 -0.17411701 2.0442002
0.96800965 -0.17405131 2.0482037
0.94585103 -0.17276362 2.0375998
0.9341644 -0.17337799 2.0494986
0.91467392 -0.1725404 2.0440178
0.90407401 -0.1733799 2.0584733
0.88077444 -0.17177111 2.0435433
0.86467314 -0.17153491 2.0449393
0.84138793 -0.16984029 2.0286915
0.82546192 -0.16959727 2.029788
0.80993158 -0.16942818 2.0316877
0.79874367 -0.17017803 2.044625
0.77148771 -0.16746819 2.0155609
0.76935595 -0.17021276 2.0525672
0.7527653 -0.16980328 2.0512271
0.73422384 -0.16892864 2.0441213
0.72304279 -0.16974629 2.0575686
0.70398945 -0.16871139 2.0483115
0.68793899 -0.16836743 2.0474024
0.66668499 -0.1667074 2.0302548
0.65144765 -0.16651154 2.0309641
0.63593847 -0.16623574 2.0306082
0.62104607 -0.16611211 2.0320435
0.60814595 -0.16652818 2.0400627
0.59157532 -0.16593491 2.0355477
0.57725495 -0.16595896 2.0385802
0.56423843 -0.16636871 2.0463207
0.55140132 -0.16685426 2.0549424
0.53497422 -0.16625038 2.0499725
0.51912922 -0.16579892 2.046809
0.49719799 -0.16332248 2.0183451
0.4862681 -0.16442053 2.034302
0.46978021 -0.16364883 2.0268855
0.45103228 -0.16201718 2.0086355
0.43949297 -0.16295326 2.0223863
0.42554864 -0.16303024 2.0253377
0.41138831 -0.16302691 2.0272167
0.38980678 -0.15997766 1.9908298
0.34911326 -0.14856978 1.8493937
0.29888475 -0.13207333 1.6437279
0.28481424 -0.13087592 1.630011
0.27306867 -0.13069174 1.6289653
0.26088107 -0.13027088 1.6248826
0.24921174 -0.1300824 1.6236671
0.23828684 -0.13028306 1.6273023
0.22650568 -0.1300122 1.6249393
0.21515679 -0.12997408 1.6254576
0.20356566 -0.1297773 1.6239194
0.19235377 -0.12981342 1.6252697
0.18113287 -0.12984756 1.6265438
0.16980085 -0.12980129 1.6267495
0.15761256 -0.12904736 1.6179464
0.14670911 -0.12931052 1.6219627
0.13584009 -0.12965016 1.6268994
0.12400568 -0.12904653 1.6198353
0.11282277 -0.12906833 1.6206433
0.10181983 -0.12932351 1.6243597
0.090606257 -0.12934124 1.6250163
0.080159098 -0.13061284 1.641528
0.073585197 -0.13965426 1.7565826
0.064543046 -0.14665399 1.8457154
0.053869143 -0.15247481 1.9198555
0.040656734 -0.15256208 1.9211745
0.028247081 -0.15720117 1.9802185
0.014689029 -0.15814742 1.9923273
0.00095809775 -0.15767772 1.9863993
-0.012741799 -0.15783368 1.9883529
-0.026442036 -0.15783006 1.9882191
-0.037005607 -0.14549637 1.8315084
-0.04194545 -0.12295454 1.5452021
-0.051472504 -0.12027648 1.5110036
-0.061867375 -0.1201875 1.5096207
-0.072245643 -0.12009662 1.5081671
-0.082336709 -0.11961141 1.5016662
-0.092646293 -0.1195168 1.5000739
-0.10300549 -0.11949877 1.4994066
-0.11313645 -0.1192435 1.4956859
-0.1237086 -0.11945704 1.4978597
-0.13431562 -0.11966863 1.4999595
-0.14571542 -0.12050547 1.5099243
-0.15573376 -0.12016426 1.5049278
-0.16644907 -0.12036991 1.5068029
-0.17685173 -0.12033854 1.5056318
-0.18724605 -0.1203053 1.5043899
-0.19685964 -0.11980043 1.4971457
-0.20760164 -0.1199985 1.4987302
-0.21922749 -0.12066411 1.5061593
-0.22992218 -0.12077987 1.5065999
-0.24016619 -0.12065913 1.5040112
-0.25038564 -0.12053664 1.5013536
-0.26108739 -0.12064683 1.5015751
-0.27268305 -0.12114569 1.5066279
-0.28253496 -0.12086156 1.5017915
-0.29365829 -0.12112217 1.5037438
-0.30403817 -0.12106875 1.5017048
-0.31420168 -0.1209356 1.4986187
-0.32517472 -0.12111256 1.4993639
-0.33487755 -0.12082017 1.4941895
-0.34786391 -0.12169424 1.5035305
-0.36099425 -0.12256565 1.5127641
-0.40162447 -0.1324567 1.6342552
-0.48830196 -0.15656102 1.9322255
-0.51406699 -0.16035879 1.977115
-0.52998757 -0.1609664 1.9822316
-0.54023421 -0.15986374 1.9660615
-0.55808192 -0.16100933 1.9776871
-0.57281101 -0.16122112 1.9776617
-0.5872857 -0.16135296 1.9765713
-0.60408217 -0.16210166 1.9830102
