# .PCD v0.7 - Point Cloud Data file format
VERSION 0.7
FIELDS x y z
SIZE 4 4 4
TYPE F F F
COUNT 1 1 1
WIDTH 1493
HEIGHT 1
VIEWPOINT 0 0 0 1 0 0 0
POINTS 1493
DATA ascii
-0.42865711 0.42242059 1.955776
-0.43543956 0.41566548 1.9222418
-0.44952205 0.41607752 1.922081
-0.46749753 0.41996247 1.9380025
-0.4761053 0.41545066 1.9148034
-0.48947662 0.41523096 1.9115032
-0.50579768 0.41745776 1.9194765
-0.51386774 0.41293669 1.8961194
-0.52581125 0.41168067 1.8878421
-0.54514909 0.41613185 1.9058619
-0.55846751 0.415883 1.9020867
-0.56727749 0.41236871 1.883211
-0.57986987 0.41170359 1.8774114
-0.60560858 0.42019013 1.9135642
-0.62498516 0.42398286 1.9280138
-0.63938814 0.42430988 1.9264772
-0.63754374 0.41407061 1.8765841
-0.64971972 0.41317457 1.8693936
-0.66573602 0.41470742 1.8732074
-0.68017989 0.41521907 1.8722836
-0.69261611 0.41450897 1.8657361
-0.70189494 0.41197306 1.8508575
-0.71872824 0.41388324 1.8560536
-0.74139088 0.41901717 1.8756949
-0.74471927 0.41323581 1.8460077
-0.76618099 0.41754332 1.8617054
-0.77811354 0.41659757 1.8536841
-0.7945683 0.41806391 1.8564067
-0.80487823 0.41630226 1.8446064
-0.84075981 0.42760488 1.8910116
-0.84842139 0.42441961 1.8726724
-0.85791129 0.42223704 1.8587718
-0.87677413 0.42466357 1.865252
-0.89451277 0.42647824 1.8689046
-0.91533387 0.42968395 1.8785759
-0.9289856 0.42947799 1.8731016
-0.94260991 0.42926571 1.8675281
-0.95931941 0.43044397 1.8679675
-0.97608531 0.431613 1.8682643
-1.0057008 0.43834928 1.8926923
-1.0148754 0.43611178 1.8779302
-1.0290562 0.43605778 1.8725969
-1.0588932 0.44254857 1.8954471
-1.0741918 0.4428699 1.8914998
-1.0997189 0.44734335 1.9052942
-1.1210589 0.45001817 1.9111998
-1.1435373 0.45307446 1.9185879
-1.1560812 0.45216677 1.9089496
-1.1741676 0.45342243 1.9084344
-1.1855913 0.45210591 1.896928
-1.2031837 0.45314521 1.8953115
-1.2076077 0.44926018 1.8728914
-1.2261986 0.4506757 1.8727058
-1.2410696 0.45070663 1.8666229
-1.2891978 0.46267226 1.9101317
-1.2927932 0.45856324 1.8865542
-1.2961222 0.45445538 1.8630213
1.4143405 0.47342756 2.0021701
1.3777972 0.46649212 1.9795989
1.367051 0.46823132 1.9939669
1.3583586 0.47072312 2.0115454
1.3327208 0.46733212 2.0036967
1.3088683 0.46449313 1.9980613
1.2920448 0.46410966 2.0029418
1.2851663 0.46733326 2.0234654
1.258913 0.46350396 2.013128
1.2528316 0.46709847 2.0351942
1.2333524 0.46572608 2.0354013
1.216936 0.46548954 2.0405045
1.1955723 0.46332946 2.0369968
1.1713936 0.46000651 2.028183
1.1507767 0.45801136 2.0251167
1.1335977 0.45734864 2.0278692
1.1197319 0.45802277 2.0365114
1.1090535 0.46003801 2.0511105
1.082659 0.4554987 2.0361524
1.0515627 0.44882107 2.0113475
1.0534148 0.45621672 2.0500185
1.0235647 0.44989848 2.0265329
1.0092739 0.45033142 2.0335395
0.99579459 0.45114535 2.0422106
0.9708758 0.44672108 2.0268698
0.96407032 0.45062307 2.0495057
0.95332175 0.45277798 2.0641179
0.91061759 0.4395777 2.0080109
0.9115513 0.44735372 2.0483222
0.88271642 0.44053638 2.0212417
0.86697328 0.44013044 2.0236497
0.8523764 0.4403024 2.0286529
0.83886963 0.44105366 2.0362747
0.821289 0.4396514 2.033793
0.80450475 0.43863147 2.0329924
0.78495824 0.4360387 2.0247355
0.77352256 0.43793833 2.0374129
0.75414616 0.43532857 2.0288692
0.73393065 0.43212059 2.0173895
0.70705652 0.4247815 1.9863135
0.70114332 0.42999187 2.0142813
0.68515354 0.42911255 2.0134625
0.66982651 0.42861921 2.0143828
0.65271801 0.42693874 2.0095897
0.62835336 0.42032808 1.9812773
0.62427545 0.4272961 2.0173957
0.60200626 0.42184803 1.9943839
0.55645674 0.39942408 1.890234
0.48850828 0.35940167 1.7016413
0.45277989 0.34164199 1.6189718
0.44144398 0.34183791 1.6220291
0.42710561 0.33965674 1.6136297
0.41508475 0.33924869 1.6136612
0.40002438 0.33626235 1.601235
0.38859031 0.33623844 1.6029774
0.37759686 0.33660588 1.6065489
0.36441728 0.33498669 1.6004848
0.35468495 0.33653408 1.6096389
0.342011 0.33530051 1.6053104
0.33215496 0.33683968 1.6143302
0.31954411 0.33559537 1.6098285
0.30737695 0.33474228 1.6071571
0.29737175 0.33626851 1.6159666
0.28607634 0.33639935 1.6179584
0.27346891 0.33493415 1.6121408
0.26064479 0.33306497 1.6042937
0.24958183 0.33337894 1.6070033
0.23977485 0.33548 1.6183646
0.22697544 0.33339497 1.6092864
0.21470004 0.33190134 1.6030254
0.20325527 0.33159751 1.6025079
0.19217442 0.3318865 1.60483
0.18020178 0.33057556 1.5992861
0.16913076 0.33085439 1.6014522
0.15803847 0.3311283 1.6035434
0.1470139 0.33159679 1.6065354
0.13546529 0.33086309 1.6035944
0.12448908 0.33152112 1.6074114
0.11278468 0.33017805 1.6013801
0.10166111 0.33042669 1.6030893
0.090355322 0.33007133 1.6017884
0.081036031 0.33789858 1.6405354
0.077888153 0.37827733 1.8388048
0.068428598 0.39788473 1.9352586
0.055128776 0.39931127 1.9425355
0.041773159 0.40113136 1.9516823
0.028616272 0.4075402 1.9832726
0.014647317 0.40355453 1.9638242
0.00094305148 0.39716509 1.9325224
-0.012869553 0.40795061 1.9853934
-0.026380198 0.4029471 1.9607645
-0.040225867 0.40472978 1.9693547
-0.054164987 0.40630627 1.9768693
-0.067809127 0.40547931 1.9725357
-0.081797689 0.40664342 1.9779004
-0.095441163 0.40600368 1.974359
-0.10979158 0.40815333 1.9844229
-0.12325763 0.40690199 1.9777588
-0.1387213 0.4118332 2.0013101
-0.15266654 0.41176662 2.0003159
-0.1642627 0.4059065 1.9709065
-0.17869741 0.4074246 1.9775465
-0.19247782 0.40733999 1.9762802
-0.20867346 0.41203576 1.9983126
-0.22001144 0.40715238 1.9734656
-0.23399234 0.40744799 1.9738636
-0.24920149 0.40973011 1.9838887
-0.26225796 0.40841869 1.9763114
-0.27737623 0.4102886 1.9841814
-0.28597221 0.40279317 1.9463609
-0.3022024 0.40624386 1.9618002
-0.31866017 0.40968609 1.9771094
-0.32888633 0.40516379 1.9536214
-0.34367952 0.40640485 1.9580882
-0.35627812 0.40505514 1.9499092
-0.37186596 0.40707791 1.9580244
-0.38607866 0.40750444 1.9583241
-0.3948597 0.40236658 1.9316275
-0.40772253 0.40159243 1.9260072
-0.42260829 0.40279642 1.929881
-0.43413284 0.40082175 1.9183409
-0.44795376 0.4010227 1.9172391
-0.46223727 0.40161377 1.9179462
-0.47397354 0.40002123 1.9080794
-0.49114236 0.40297464 1.9199964
-0.50032681 0.39939439 1.9004697
-0.51511389 0.40035748 1.9026843
-0.5317831 0.40269625 1.9114014
-0.54004437 0.3987104 1.8897988
-0.55433309 0.39926076 1.8898249
-0.56584626 0.39783329 1.8803505
-0.58873343 0.40428284 1.908308
-0.61115718 0.41012782 1.933233
-0.6255604 0.41045007 1.9318032
-0.63997585 0.41076615 1.9302678
-0.63625968 0.39967903 1.8747284
-0.6519202 0.40097243 1.8777415
-0.66830736 0.40265077 1.882478
-0.66686124 0.39373264 1.8372558
-0.69258034 0.40088886 1.8676126
-0.70013189 0.39745599 1.84813
-0.70990872 0.39539221 1.8350421
-0.7259782 0.39684477 1.8383448
-0.74322325 0.39887539 1.8442454
-0.75651586 0.39875004 1.8400058
-0.77091914 0.39920425 1.8383876
-0.77691638 0.39536506 1.8167922
-0.80483818 0.40262398 1.8465221
-0.81739718 0.40208361 1.8400458
-0.83071262 0.40192696 1.8352742
-0.85338777 0.40623081 1.8509252
-0.86058807 0.40314856 1.8325565
-0.88733405 0.40917581 1.8558387
-0.90293473 0.40995714 1.854983
-0.92895538 0.41537395 1.8751332
-0.94301832 0.41536206 1.8704396
-0.96640939 0.41939867 1.8840055
-0.99094218 0.42380649 1.8990792
-1.0029376 0.42280284 1.8895909
-1.0213377 0.4244895 1.8921382
-1.0323193 0.42308873 1.880731
-1.0541264 0.42610237 1.8890102
-1.0770664 0.42948627 1.8987873
-1.0875306 0.42787138 1.8861853
-1.106753 0.42969948 1.8888038
-1.1355526 0.43515006 1.9073035
-1.1500227 0.43504006 1.9010854
-1.1690636 0.43663999 1.9023019
-1.1959335 0.44108745 1.9158642
-1.2016242 0.4377102 1.8950738
-1.2128987 0.43642452 1.8833983
-1.2454432 0.44273081 1.9046055
-1.2529635 0.4400973 1.8869134
-1.2657572 0.43935627 1.877372
-1.2889595 0.44220331 1.8831805
-1.2989331 0.44049871 1.8693532
1.3895782 0.44936064 1.9691514
1.3733703 0.44922006 1.9754928
1.3709577 0.45364097 2.0020354
1.3720688 0.45934555 2.0343585
1.3414104 0.4544234 2.0191905
1.3051468 0.44746098 1.9946283
1.2798886 0.44414803 1.9862262
1.2836198 0.45093736 2.0233192
1.2677348 0.45091912 2.0296488
1.2349321 0.44480672 2.0081697
1.1984483 0.43719497 1.9795952
1.203946 0.44489926 2.020829
1.1901466 0.44558138 2.029954
1.1826302 0.44866538 2.050071
1.1517438 0.44284686 2.0290844
1.1431243 0.44554791 2.0473053
1.1173809 0.44155696 2.0344448
1.1071981 0.44368938 2.0499034
1.0872368 0.44190818 2.047065
1.0624014 0.43806568 2.0344541
1.0453825 0.43738061 2.0364797
1.0323508 0.4383682 2.0462728
1.0001545 0.43112463 2.0171988
0.99407363 0.43508866 2.0408442
0.98223811 0.43661845 2.0529652
0.9545095 0.43102005 2.0311909
0.9263199 0.4250297 2.0073476
0.91824818 0.42822522 2.0271091
0.89765942 0.42559254 2.0189977
0.87255031 0.42069134 1.9998842
0.87117648 0.4272621 2.0356631
0.85197896 0.42516845 2.029814
0.83439481 0.42381963 2.0274341
0.82236451 0.42529407 2.0385842
0.80340886 0.42317528 2.0322957
0.7842322 0.42085803 2.0249271
0.76589268 0.41890967 2.0192304
0.74733436 0.41676298 2.0124562
0.7312429 0.4159337 2.0119896
0.71944475 0.41756243 2.0234342
0.7011205 0.41539243 2.0162497
0.68293381 0.41321346 2.0089102
0.66918933 0.41368607 2.0144715
0.65088981 0.4113012 2.0059223
0.62803286 0.40586293 1.9822335
0.61648017 0.40764704 1.9939922
0.58565974 0.39647233 1.9417338
0.51930767 0.36011404 1.7647568
0.4688583 0.333244 1.6341846
0.45245129 0.32981351 1.6193768
0.43780524 0.32752025 1.6101098
0.42679289 0.32789487 1.6140137
0.41526455 0.32788286 1.6159409
0.40208232 0.32652712 1.6111171
0.38944602 0.32554811 1.6080995
0.37842831 0.32590386 1.6116779
0.36824366 0.32702154 1.619012
0.35651281 0.32679388 1.6195706
0.3421607 0.32406846 1.6075618
0.33132163 0.32459724 1.6117837
0.32006282 0.32473782 1.6140076
0.30897224 0.32506582 1.6171187
0.29539299 0.32270014 1.6066382
0.28451121 0.32321018 1.6105497
0.27294004 0.322947 1.6105179
0.26138332 0.32267874 1.6104047
0.24879813 0.32105899 1.6034211
0.23803067 0.3217425 1.6079938
0.22599122 0.32068917 1.6037486
0.2146668 0.32059315 1.60428
0.2040792 0.32164782 1.6105747
0.19179836 0.32000107 1.6031591
0.18039112 0.31969756 1.6024793
0.16910452 0.31958178 1.6026963
0.15772831 0.3192682 1.6018586
0.14707984 0.32049236 1.6087599
0.13438176 0.31708309 1.5921248
0.12387019 0.31868327 1.6008304
0.11249433 0.31815681 1.598701
0.10158399 0.31897599 1.6033477
0.090396032 0.31901851 1.6040025
0.079108037 0.31867006 1.6026211
0.068213724 0.32005394 1.6099849
0.060005136 0.33707038 1.6967036
0.053636178 0.3753216 1.8912706
0.041604709 0.38596174 1.9455445
0.028559024 0.39292827 1.981101
0.014617662 0.38907611 1.9616258
0.00096293556 0.39178285 1.9754156
-0.012724038 0.38965619 1.9645822
-0.026509875 0.3911922 1.9722975
-0.040422801 0.3929151 1.9808987
-0.054429214 0.39443865 1.9884225
-0.068073653 0.39325306 1.9821202
-0.081553213 0.39167544 1.9737657
-0.095531158 0.39260137 1.9780627
-0.10930368 0.39255595 1.9773639
-0.12319212 0.39289042 1.9785302
-0.13716915 0.39341164 1.9805789
-0.15036604 0.39180461 1.9717689
-0.16441728 0.39250663 1.9746075
-0.17816478 0.39243099 1.9734389
-0.19162111 0.39177099 1.9692463
-0.2064428 0.39380386 1.9786284
-0.22118777 0.3954443 1.9859506
-0.2334097 0.3926467 1.9707501
-0.24931273 0.39600816 1.9866379
-0.2633988 0.39628088 1.9868354
-0.27305433 0.39019504 1.9548583
-0.28836212 0.39238188 1.9646012
-0.30115145 0.39109868 1.9567659
-0.31616923 0.39269516 1.9633852
-0.32967794 0.39236224 1.9602126
-0.34231734 0.39106297 1.9521146
-0.36220676 0.39782679 1.9844953
-0.36676425 0.38787401 1.9327884
-0.37966028 0.38713661 1.9273486
-0.3981511 0.39195797 1.9497192
-0.41052103 0.39063278 1.9411908
-0.41363353 0.38086918 1.8903844
-0.43668514 0.38950187 1.9315679
-0.44615611 0.38586479 1.9113272
-0.46152616 0.38739359 1.9168255
-0.47230226 0.38508931 1.9031427
-0.48677203 0.38584107 1.9046268
-0.50178212 0.38696882 1.9079031
-0.5117752 0.38426992 1.8921027
-0.51896626 0.37965992 1.8667938
-0.53893924 0.38439748 1.8877574
-0.55292714 0.38473898 1.8868543
-0.57085764 0.38774207 1.8990194
-0.58898532 0.39073613 1.9110281
-0.60496068 0.3921985 1.9153833
-0.61832684 0.39194191 1.9111965
-0.63381207 0.39301047 1.9134465
-0.63465244 0.38514602 1.8718365
-0.64453143 0.38298053 1.8581604
-0.64871532 0.37758869 1.8286923
-0.65684396 0.37466285 1.8112671
-0.67831117 0.37931091 1.8306842
-0.69387162 0.38054043 1.8333431
-0.69896269 0.37609029 1.8083675
-0.71089947 0.37542033 1.8016994
-0.72387338 0.37531251 1.7976891
-0.75090665 0.38236764 1.8281465
-0.76408422 0.38224348 1.8238523
-0.77724236 0.38211399 1.8194634
-0.81568807 0.39421004 1.8735882
-0.8042888 0.38221502 1.8121996
-0.84030354 0.3927761 1.858606
-0.86272335 0.3967441 1.8733294
-0.85887676 0.38869876 1.830832
-0.88812602 0.39564884 1.8594967
-0.91099328 0.39958557 1.8736864
-0.93064284 0.40201288 1.8805932
-0.92673135 0.39434198 1.8398587
-0.95880187 0.40198267 1.8710846
-0.97014964 0.40083942 1.8609359
-0.98963863 0.40304464 1.866372
-1.0101819 0.40561092 1.8733593
-1.0266504 0.4064925 1.8723823
-1.040306 0.40625143 1.8661065
-1.0755942 0.41435045 1.8982788
-1.0914015 0.41482875 1.8950663
-1.1249833 0.42196137 1.9223205
-1.1235493 0.41594553 1.8891016
-1.1510155 0.42064574 1.9048876
-1.1654706 0.42053217 1.8985568
-1.1726582 0.41783202 1.8804146
-1.1979537 0.42157078 1.8913947
-1.2266355 0.42639551 1.9070861
-1.2352865 0.42422485 1.8911209
-1.2421558 0.42150125 1.8726645
-1.2815921 0.42976272 1.9032542
-1.2873095 0.42665634 1.8829378
-1.3173358 0.43158558 1.8982691
1.4240127 0.44432697 2.0206103
1.396844 0.44085538 2.0117838
1.3759521 0.43930718 2.0116389
1.3584152 0.43880635 2.0162117
1.3408841 0.43829551 2.0206394
1.3089001 0.43299121 2.0026278
1.2867737 0.43085831 1.9992007
1.2516645 0.42427218 1.974738
1.2604845 0.43259791 2.0201657
1.2538774 0.43577284 2.0414417
1.2080522 0.42522448 1.9977542
1.1984329 0.42731202 2.0136857
1.1406924 0.41207087 1.9470648
1.1440327 0.41878277 1.9847935
1.156072 0.42890322 2.0389504
1.1364412 0.42739028 2.0374188
1.1211272 0.42748138 2.0434887
1.102538 0.42630851 2.0433731
1.0863019 0.42602509 2.0474503
1.0831834 0.43095243 2.0767326
1.0449129 0.42183357 2.0376897
1.0296879 0.42188501 2.0430841
1.0148774 0.42211041 2.0492475
0.98977035 0.41799435 2.0340466
0.97125316 0.41657624 2.0319271
0.95281863 0.41514915 2.0296488
0.93446797 0.41371325 2.0272129
0.92144001 0.41462541 2.036283
0.89246958 0.40827477 2.0092752
0.88422495 0.411351 2.0289001
0.8626951 0.40824637 2.0177276
0.84665734 0.40767735 2.0190661
0.835105 0.40928635 2.0312042
0.81210905 0.40524349 2.0149777
0.79799461 0.40556493 2.0205023
0.79336274 0.41080856 2.0507107
0.76724309 0.40491346 2.0248137
0.74797922 0.4024764 2.0161867
0.730542 0.40094459 2.0120161
0.72333479 0.40507933 2.0364449
0.69660157 0.3982237 2.0051048
0.68321437 0.39886832 2.0116913
0.6633144 0.3956562 1.9985811
0.65236217 0.39775714 2.0124319
0.62770283 0.39140636 1.9830869
0.61414248 0.3918421 1.9882747
0.56872785 0.37149137 1.8869518
0.49147052 0.32884371 1.6709237
0.4604615 0.31578445 1.6061672
0.44923434 0.31597036 1.609277
0.43798789 0.31615207 1.6123098
0.42647359 0.31614503 1.6143142
0.41519618 0.31631806 1.6171902
0.40225109 0.31519419 1.6133097
0.38960975 0.31424943 1.6102852
0.37792042 0.31403854 1.610994
0.36602497 0.31363794 1.6106603
0.35352567 0.31267741 1.6073605
0.3425082 0.31300724 1.6106983
0.32989496 0.3118512 1.6062577
0.31830645 0.31161603 1.6065434
0.30727804 0.31193209 1.6096438
0.29657432 0.31261465 1.6146034
0.28463274 0.31199476 1.6127179
0.27175656 0.31025636 1.6049311
0.26165119 0.3116678 1.6135391
0.24965057 0.31084722 1.6104304
0.23884511 0.31150755 1.6150125
0.22581713 0.3091906 1.6039529
0.21450134 0.30909795 1.6044815
0.20282251 0.30844289 1.6020076
0.19188125 0.30889854 1.6053047
0.1802516 0.30823368 1.6026698
0.16815738 0.30663344 1.5950665
0.15789203 0.30837768 1.6049771
0.14652397 0.30807033 1.6040592
0.13517612 0.30775812 1.6030625
0.12414913 0.30818596 1.605906
0.11233855 0.30656046 1.5978938
0.10119787 0.3066062 1.5986222
0.090052463 0.30664712 1.5992746
0.078615256 0.30556545 1.5939631
0.067543775 0.30578309 1.5954432
0.056524348 0.30636877 1.5988114
0.045820445 0.30937254 1.6148727
0.03756262 0.33622843 1.7565919
0.027827382 0.3694188 1.9316695
0.014464382 0.37147817 1.9426202
0.00095955806 0.37670052 1.9701824
-0.012735908 0.37632519 1.9681772
-0.026351282 0.37519839 1.9621489
-0.039864164 0.37387952 1.9550469
-0.053706698 0.37553683 1.9635676
-0.067902781 0.37849256 1.9788651
-0.081709452 0.37864682 1.9793369
-0.095572829 0.37898141 1.9806947
-0.10945886 0.37931013 1.9819579
-0.12318526 0.37907398 1.9801832
-0.13736348 0.38013577 1.9851769
-0.15124619 0.38026035 1.9851726
-0.16659032 0.38373026 2.0026982
-0.17806695 0.37844393 1.9741126
-0.19255331 0.37985393 1.9806749
-0.20855407 0.38386244 2.0008152
-0.22020511 0.37986422 1.9788359
-0.23373978 0.37939572 1.9753349
-0.25014824 0.38338396 1.9951438
-0.25954297 0.37676924 1.9592925
-0.27505863 0.37925792 1.9711012
-0.28608084 0.37560928 1.9507027
-0.30128071 0.37752828 1.9593887
-0.31831846 0.38148236 1.9786334
-0.32917264 0.37800524 1.9589673
-0.34465134 0.37990454 1.9673233
-0.35868689 0.38012791 1.9668579
-0.36837357 0.37589702 1.9431163
-0.38132814 0.37518433 1.9376619
-0.39851499 0.37854105 1.9533123
-0.40545285 0.37226349 1.918805
-0.41839013 0.37172204 1.9140698
-0.43321627 0.37284011 1.9178793
-0.44346443 0.37006998 1.9014702
-0.45327961 0.36711243 1.8840564
-0.46475455 0.36562997 1.8742342
-0.48263231 0.36912712 1.8900687
-0.49926513 0.37150842 1.9000406
-0.51326102 0.3718538 1.8994305
-0.52727419 0.3721936 1.8987194
-0.53943086 0.37123874 1.891286
-0.55507535 0.3726722 1.8960476
-0.56604272 0.37097198 1.8846697
-0.57171273 0.36596012 1.85631
-0.60374206 0.37766522 1.9133302
-0.61648065 0.37705073 1.9072803
-0.61260998 0.36652568 1.8507112
-0.604545 0.35399318 1.7840374
-0.63361251 0.36327299 1.8281989
-0.64539546 0.36246613 1.8210322
-0.65844196 0.36238709 1.8174913
-0.66842449 0.36065787 1.8055512
-0.69104797 0.36568457 1.8276222
-0.69221622 0.35938227 1.7925388
-0.71584171 0.36475673 1.8161358
-0.73108858 0.36574396 1.8175727
-0.75232327 0.36963788 1.8334585
-0.76665568 0.37006325 1.8318813
-0.77640772 0.36830115 1.8193266
-0.79537445 0.37089586 1.8283949
-0.81411284 0.37329924 1.8363875
-0.82335615 0.37134135 1.822668
-0.83326876 0.3697437 1.810698
-0.84554601 0.36922941 1.8040289
-0.87039554 0.37413532 1.8239464
-0.88831061 0.37595528 1.8285422
-0.91239852 0.38029295 1.8453403
-0.9306193 0.38209203 1.8495702
-0.9569633 0.38712427 1.8694229
-0.96286815 0.3838622 1.8487952
-0.98317671 0.38635349 1.8560419
-0.9957568 0.38578033 1.8483449
-1.0176743 0.3887904 1.8578513
-1.0607057 0.39967358 1.9050332
-1.0673614 0.39674142 1.8856499
-1.089895 0.39971063 1.8944651
-1.1022419 0.39891493 1.8851836
-1.1190124 0.39972007 1.883451
-1.1297505 0.39837733 1.8714451
-1.1598116 0.40379611 1.8913276
-1.1808985 0.40599394 1.8958132
-1.2078625 0.41013303 1.9092661
-1.2229098 0.41017413 1.9033475
-1.2336583 0.40878975 1.8907025
-1.2567244 0.41147131 1.8969179
-1.2744771 0.41237059 1.8947172
-1.2939185 0.41378894 1.8948066
-1.2966937 0.40990618 1.8703856
1.407656 0.42323989 1.9993976
1.3879082 0.42209506 2.0009832
1.3643382 0.41974762 1.996684
1.3321416 0.41465986 1.9790454
1.3349214 0.42046767 2.013742
1.3260305 0.42269525 2.0312064
1.2973546 0.41859332 2.0179114
1.2794161 0.4178974 2.0210032
1.2438799 0.41136432 1.9954561
1.2205539 0.40875515 1.9888684
1.221191 0.41420701 2.0217664
1.204411 0.41381609 2.0259199
1.1881315 0.41358915 2.0307894
1.1742907 0.41421637 2.0398068
1.1555597 0.41311222 2.0401433
1.1254454 0.40785274 2.0196304
1.1220362 0.41225922 2.0472519
1.0792741 0.40212718 2.0019722
1.0702188 0.40444407 2.0189583
1.0501251 0.40259612 2.0149188
1.0337156 0.40212712 2.0177212
1.0243665 0.40443161 2.0344872
1.002251 0.40168926 2.0255852
0.98288172 0.39998022 2.0217962
0.96910149 0.40052766 2.0294042
0.96191585 0.40386131 2.0512009
0.93155801 0.39741674 2.0228434
0.92663622 0.4017902 2.0498631
0.90353167 0.39829403 2.0363605
0.87636882 0.39286014 2.0126963
0.86687481 0.39529616 2.0295463
0.8655082 0.40158859 2.0663595
0.8350603 0.39437133 2.0330517
0.81242734 0.39064971 2.0177088
0.79974359 0.39166293 2.0269015
0.78203899 0.39020908 2.0231473
0.76339036 0.38821933 2.0164824
0.74963307 0.38868779 2.0225911
0.7341643 0.38826987 2.0239758
0.70759827 0.38184643 1.993678
0.70072389 0.38600311 2.0189509
0.68097228 0.38309216 2.006911
0.66603875 0.38282415 2.0087204
0.65322387 0.38378897 2.0169792
0.62972105 0.37837565 1.9913517
0.59248632 0.36426842 1.9193877
0.53177595 0.33471429 1.764972
0.47543436 0.30653772 1.6173831
0.46091488 0.30459261 1.6092343
0.45203549 0.30637065 1.6208841
0.43816432 0.30476996 1.6144319
0.42589897 0.30423 1.6135796
0.41245601 0.30279559 1.6078678
0.40123534 0.30295733 1.6106478
0.38976794 0.30293676 1.6123934
0.37740648 0.30219913 1.6102246
0.36531052 0.3016347 1.608924
0.35367003 0.30142206 1.6094575
0.34163514 0.30084804 1.607983
0.33081403 0.30134013 1.6122055
0.31900504 0.30093536 1.6115291
0.30703908 0.30034709 1.6098013
0.29599258 0.30064771 1.6128269
0.28254938 0.29844072 1.6022093
0.27219409 0.29944745 1.6089513
0.2602005 0.29866105 1.6059136
0.24841134 0.29804865 1.6037614
0.23922928 0.30065459 1.619047
0.22591105 0.29806304 1.6060249
0.21459073 0.29797396 1.606553
0.20351863 0.29823872 1.6089551
0.19230811 0.29831985 1.6103057
0.18054463 0.2974999 1.6066908
0.16945274 0.2977511 1.6088628
0.15729091 0.29602444 1.6001893
0.14569972 0.29518971 1.5963256
0.13515109 0.29650384 1.6041442
0.12307562 0.29440314 1.5932574
0.11272718 0.29642668 1.6048545
0.10117897 0.29539356 1.5996945
0.089926206 0.2950739 1.5983824
0.079415694 0.29744384 1.6117313
0.067407556 0.29406136 1.5935602
0.056720182 0.2962428 1.6057799
0.045397952 0.29536566 1.6012118
0.034162257 0.29466349 1.5975498
0.023541063 0.30114383 1.6331552
0.013555649 0.335471 1.8211632
0.00094666344 0.35811439 1.9451617
-0.012646628 0.36008859 1.9559427
-0.026218357 0.35972112 1.953843
-0.039841235 0.36006677 1.9555846
-0.053516041 0.3605864 1.9582165
-0.068199016 0.3663103 1.9892663
-0.081462316 0.36376423 1.974993
-0.095613129 0.36534426 1.9832339
-0.10939741 0.36530182 1.9825348
-0.12317656 0.36525369 1.9817413
-0.13708463 0.36555904 1.9828169
-0.15086518 0.36549953 1.9818344
-0.16439609 0.36489597 1.9778168
-0.17770356 0.36392808 1.9717491
-0.19197336 0.36492854 1.9763654
-0.20591077 0.36520544 1.9769658
-0.21813954 0.36260739 1.9618241
-0.23475441 0.36717641 1.9856936
-0.24515529 0.36205873 1.9567084
-0.26298165 0.36786866 1.9871787
-0.27395964 0.36399657 1.9648719
-0.28803974 0.36441913 1.9658765
-0.30096093 0.3634038 1.9590011
-0.31302652 0.36148903 1.947185
-0.32833877 0.36332682 1.9556779
-0.33738595 0.35836264 1.9272176
-0.35638413 0.3639434 1.9558513
-0.36616278 0.36004421 1.9330655
-0.37978923 0.36007234 1.9314857
-0.38931605 0.35634601 1.9095589
-0.40118134 0.35493761 1.9001141
-0.41501915 0.35530901 1.9002144
-0.42715856 0.35424867 1.892534
-0.43943444 0.35336244 1.8857368
-0.45323545 0.35371873 1.8855618
-0.47128305 0.35727388 1.9024886
-0.47944772 0.35334751 1.87919
-0.49376273 0.35404378 1.8806306
-0.49997568 0.34904715 1.8515457
-0.51416856 0.34973505 1.8528283
-0.52653104 0.34917462 1.847375
-0.5424093 0.35091621 1.8541274
-0.55054724 0.34768641 1.8343385
-0.57366461 0.3538467 1.8644166
-0.60398269 0.36406696 1.9158679
-0.60801846 0.35834253 1.8826329
-0.52911508 0.30505049 1.5978596
-0.60290557 0.34018627 1.7808193
-0.63993663 0.35354736 1.8483299
-0.64662874 0.34994337 1.8262566
-0.66402203 0.35215911 1.8347535
-0.6781776 0.35260445 1.8338555
-0.67647129 0.34494439 1.790446
-0.69881868 0.34960741 1.8115089
-0.70072591 0.34406129 1.7791622
-0.72518015 0.34958628 1.8044908
-0.73741716 0.34912944 1.7985585
-0.74885637 0.34831756 1.7907243
-0.7533254 0.34434763 1.766495
-0.78984028 0.35491213 1.8173354
-0.80809581 0.35705617 1.8244839
-0.82206863 0.35726866 1.8215808
-0.83604425 0.35747546 1.8185711
-0.85043675 0.35785106 1.8163481
-0.86105525 0.35665172 1.8060004
-0.88011611 0.35893232 1.8133383
-0.90885538 0.36503097 1.839954
-0.92131644 0.36450711 1.8327667
-0.94040805 0.36658338 1.8386683
-0.94788963 0.36413926 1.821638
-0.98676431 0.37365255 1.864764
-1.0003196 0.37344515 1.8587794
-1.0176022 0.37461573 1.8596212
-1.0306671 0.37422279 1.8525504
-1.0523603 0.37693092 1.8608505
-1.0893468 0.38497138 1.8954661
-1.0839102 0.37800533 1.8555024
-1.1174537 0.38463768 1.8827695
-1.1514343 0.39124832 1.909659
-1.1664084 0.3913151 1.9041739
-1.1798134 0.39086026 1.8960571
-1.1847922 0.38765967 1.8744897
-1.1905886 0.38480151 1.8546072
-1.2459189 0.39782873 1.9116859
-1.2339743 0.38932016 1.864297
-1.265697 0.39462686 1.8835831
-1.2900202 0.39752984 1.8910924
-1.3100487 0.39905778 1.8918571
1.4087679 0.4075782 2.0030839
1.3850929 0.40533099 1.9989754
1.3792499 0.40831059 2.0207729
1.3545557 0.40571392 2.0146866
1.3316419 0.40359515 2.010829
1.3115317 0.40228525 2.0108924
1.2951998 0.40211642 2.0165961
1.2605039 0.39617172 1.992931
1.2542046 0.399115 2.0141907
1.2338327 0.39759782 2.0127079
1.2145604 0.39640072 2.0127318
1.2058687 0.39867052 2.0304267
1.1920446 0.39928094 2.0395663
1.1918442 0.40453172 2.0725906
1.1651698 0.40081725 2.0592792
1.1344529 0.39559141 2.0379303
1.1008004 0.38918269 2.0101912
1.1071018 0.39691794 2.0560021
1.0706208 0.38931671 2.0216959
1.0677187 0.39388272 2.0509286
1.0492849 0.39276895 2.0503285
1.0256318 0.3896392 2.0389862
1.0113115 0.39001393 2.0460019
0.98153841 0.3843492 2.0209465
0.97410578 0.38739216 2.0419106
0.95770454 0.38690844 2.044095
0.94214392 0.38675416 2.0479436
0.92012972 0.38390219 2.0372822
0.90942878 0.38575411 2.0516787
0.8606804 0.3712568 1.9782412
0.86643237 0.38017395 2.0303953
0.85222292 0.38049135 2.0362964
0.83091402 0.37759393 2.0247545
0.82333183 0.3809424 2.0468843
0.80435491 0.37904504 2.0405517
0.7823351 0.37561521 2.0257735
0.76679689 0.37522539 2.0273983
0.75059754 0.37449044 2.0270555
0.72843981 0.37069398 2.0098946
0.71735382 0.37249193 2.0232029
0.69842571 0.37020779 2.0140905
0.67840445 0.36723492 2.0010788
0.66814023 0.36952931 2.0169086
0.64835256 0.36654153 2.0036073
0.6349743 0.36712381 2.0098765
0.60078633 0.35542229 1.9482158
0.55085957 0.33363211 1.8304788
0.48827913 0.3029305 1.6629603
0.46431765 0.29525366 1.6226532
0.45299718 0.29542798 1.6257885
0.4375678 0.29286131 1.6136215
0.42681178 0.2933684 1.6184796
0.41237444 0.29130307 1.6089431
0.40092045 0.29128757 1.6107657
0.38900357 0.29092494 1.6105912
0.37755454 0.29090083 1.6122501
0.36502212 0.29001451 1.609023
0.35464668 0.29084 1.6153278
0.34298614 0.29063147 1.6157829
0.32996452 0.28921559 1.6093974
0.31856319 0.28916964 1.6106451
0.30679545 0.28877535 1.6098772
0.2959342 0.28923681 1.6138716
0.28401673 0.28866166 1.6119715
0.27165195 0.28756514 1.6070708
0.26061633 0.28784159 1.609859
0.249257 0.28776938 1.6106259
0.23832734 0.28820983 1.6142378
0.22586584 0.28674951 1.6070449
0.21428968 0.2863189 1.6056185
0.20298871 0.28622875 1.6060652
0.19203877 0.28665194 1.6093684
0.18039973 0.28603521 1.6067246
0.16809149 0.2842052 1.5971409
0.15706842 0.28444234 1.5992302
0.14611313 0.284848 1.6022258
0.13479663 0.28455833 1.6012216
0.12290029 0.28288168 1.5922823
0.11249971 0.28465676 1.6029086
0.101097 0.28400797 1.5997061
0.089908011 0.2838732 1.5993745
0.078728348 0.28373393 1.598966
0.067558564 0.28359023 1.5984811
0.056467988 0.28378794 1.5998883
0.045278315 0.28346241 1.5982665
0.034238689 0.28417009 1.6024762
0.023072898 0.28400862 1.6016871
0.011992232 0.28557232 1.6106704
0.00082255009 0.29941255 1.6895083
-0.012260359 0.33590716 1.8972892
-0.026032517 0.34368303 1.9414784
-0.039141465 0.34038374 1.9225451
-0.053324435 0.34572682 1.952754
-0.068126395 0.35210153 1.9887654
-0.081455231 0.34999648 1.9764444
-0.095275804 0.35030702 1.9778095
-0.10938807 0.35147643 1.9839966
-0.12328719 0.35177577 1.9851698
-0.13572577 0.34826711 1.9646286
-0.14885077 0.34700069 1.9567809
-0.16405824 0.35039428 1.9753516
-0.17786317 0.35049909 1.9751668
-0.19148445 0.35025299 1.972926
-0.20538692 0.35051969 1.9735326
-0.2191989 0.35060817 1.9730633
-0.23324361 0.35103646 1.974456
-0.24561821 0.34904364 1.9620652
-0.26180586 0.35239375 1.9798758
-0.27326033 0.34935644 1.9614549
-0.28688079 0.34924617 1.9595436
-0.29944992 0.3479245 1.9507231
-0.31470183 0.3496992 1.9593334
-0.32798451 0.34922883 1.955196
-0.33785713 0.34531093 1.931559
-0.34899601 0.34293941 1.916605
-0.36903492 0.34916487 1.9499999
-0.38107046 0.34764323 1.9396993
-0.39200658 0.34525847 1.9244989
-0.40618235 0.3457911 1.925634
-0.41955951 0.3456313 1.922815
-0.43291807 0.34546676 1.9199046
-0.43982854 0.34032285 1.889065
-0.45295638 0.34015116 1.8860162
-0.46582934 0.3398034 1.8819206
-0.48132533 0.34133512 1.8882452
-0.48576787 0.33515748 1.8515395
-0.49889663 0.33514071 1.8491277
-0.5044412 0.33016086 1.8190738
-0.52673483 0.33611831 1.8497177
-0.53493774 0.33301285 1.8299845
-0.55974692 0.34014672 1.8668946
-0.57101166 0.33890933 1.8573667
-0.58481866 0.33920285 1.8562378
-0.53075582 0.30099398 1.6429093
-0.49280232 0.27338567 1.4884756
-0.58840996 0.31946915 1.7391931
-0.62355262 0.33148596 1.8022354
-0.64557016 0.33617678 1.8248895
-0.6576218 0.33559394 1.8185683
-0.66487318 0.33263245 1.7992131
-0.67741883 0.33238268 1.794613
-0.68993586 0.33212861 1.7899256
-0.70206559 0.33170095 1.784233
-0.71305943 0.330762 1.7757111
-0.72842324 0.33184743 1.7780807
-0.73669064 0.32971859 1.763021
-0.75936192 0.33399865 1.782436
-0.7644102 0.33051372 1.7599757
-0.78701127 0.33460787 1.7781495
-0.81553781 0.34104556 1.8086929
-0.81756371 0.33637211 1.7797167
-0.85034108 0.34429833 1.8178697
-0.86095738 0.34314403 1.8075178
-0.87275684 0.34248957 1.7997707
-0.90182918 0.34853038 1.8273672
-0.92473876 0.35204458 1.8414086
-0.93808722 0.35186902 1.8358711
-0.96089488 0.35519513 1.8486402
-0.98667723 0.35951003 1.8664198
-0.99605638 0.3578108 1.8526075
-0.99730581 0.35327893 1.824018
-1.0310552 0.36022612 1.855086
-1.0479369 0.36117184 1.8548028
-1.067309 0.36293921 1.8586584
-1.075922 0.36104959 1.8435564
-1.1033784 0.36545017 1.8607267
-1.1255656 0.36801508 1.8682911
-1.161222 0.37486309 1.8975564
-1.1812979 0.37657288 1.90039
-1.1951911 0.37629396 1.8930053
-1.2233342 0.38045356 1.90799
-1.244791 0.38245842 1.911903
-1.2495952 0.37936005 1.8900391
-1.2771189 0.38315076 1.9026873
-1.272288 0.3772594 1.866824
-1.2781832 0.37464756 1.8473903
1.4030812 0.39000154 1.9969417
1.3861678 0.38972545 2.002543
1.3736744 0.39070004 2.0145502
1.3451983 0.38709834 2.0026517
1.3343017 0.38852987 2.0168715
1.3077254 0.38537526 2.00699
1.2946151 0.3861604 2.0176601
1.2788 0.38614815 2.0240617
1.2650368 0.38676295 2.0337014
1.2430009 0.38483196 2.029748
1.2231134 0.38352528 2.0289757
1.1902767 0.37807161 2.0059061
1.2078232 0.38868818 2.0687509
1.181518 0.38528788 2.0564649
1.1506177 0.38027713 2.0353053
1.1415421 0.38244092 2.0527077
1.1223935 0.3812432 2.0518627
1.0861144 0.37411118 2.0186336
1.0714664 0.37433285 2.0252028
1.0644821 0.37727699 2.0465751
1.0344769 0.37202877 2.0230572
1.0229181 0.37335679 2.0354359
1.0147171 0.37596908 2.0548396
0.98960042 0.37229785 2.039547
0.97867751 0.37393519 2.0534458
0.95805025 0.37185782 2.046705
0.94166511 0.37138659 2.0487561
0.91763866 0.36783683 2.0335655
0.90658081 0.369454 2.047051
0.88405067 0.36637148 2.0342026
0.85867083 0.36198148 2.0138712
0.84648025 0.36309513 2.024276
0.83009976 0.36241925 2.0245535
0.8225342 0.36563721 2.0466976
0.79638559 0.36056075 2.0219648
0.78262001 0.36100513 2.0282989
0.76915532 0.36160794 2.0354631
0.74407035 0.3566643 2.0110486
0.73404467 0.35888588 2.0272403
0.71696222 0.35767758 2.0238433
0.70124835 0.35711595 2.02404
0.6874553 0.35752937 2.0297277
0.66684693 0.35433936 2.0147021
0.65040016 0.35326821 2.0117028
0.63314474 0.35169923 2.0057495
0.61658204 0.35045114 2.0015421
0.59757322 0.34772032 1.988695
0.55481857 0.33070272 1.8932741
0.49674687 0.30347806 1.7385235
0.45316628 0.28393939 1.6277684
0.43670869 0.28081506 1.611773
0.42622441 0.28146681 1.6175818
0.41689461 0.28293821 1.628104
0.40130717 0.2801255 1.6136743
0.38960886 0.27994207 1.6144583
0.37836525 0.28008416 1.6170807
0.36451209 0.27824312 1.608078
0.35352457 0.27854145 1.6114924
0.34129134 0.27784547 1.6090416
0.32989398 0.27780548 1.6103667
0.3186847 0.27792668 1.6125807
0.30636427 0.27705204 1.6089027
0.29551911 0.27749556 1.6128962
0.28260082 0.2759501 1.6051593
0.27208176 0.27671632 1.6109406
0.2586883 0.27449894 1.5991262
0.2487558 0.27591947 1.6086519
0.23699336 0.27534875 1.606408
0.22568144 0.27527067 1.6070102
0.21437261 0.27518842 1.6075342
0.20196579 0.27360949 1.5991735
0.19165066 0.2748453 1.6073689
0.17959854 0.27358887 1.6007975
0.16887204 0.27431908 1.6059082
0.15732041 0.27371743 1.6030961
0.14599285 0.27344343 1.6021674
0.13501301 0.27382925 1.6050905
0.12324874 0.27255014 1.5981076
0.11240706 0.2732597 1.6028455
0.10089034 0.27230385 1.5976692
0.089943215 0.27283895 1.6012733
0.078807198 0.2728714 1.6018491
0.067585059 0.27256715 1.6003784
0.056455713 0.27259099 1.6008011
0.04501972 0.27078211 1.5903059
0.033960268 0.27079731 1.5905752
0.02301167 0.27213818 1.5986569
0.011887943 0.27197868 1.5977899
0.00077771256 0.27198109 1.5978332
-0.010351503 0.27247801 1.6007588
-0.024168501 0.30655161 1.8027798
-0.039077245 0.32648832 1.9208784
-0.053185247 0.33129126 1.9491524
-0.066747211 0.3314344 1.9497288
-0.081124827 0.33489639 1.9699181
-0.095313147 0.3366906 1.9801527
-0.10905412 0.3366513 1.9794556
-0.12333543 0.33810207 1.987523
-0.13712652 0.33805212 1.9866344
-0.15068872 0.33749861 1.9827018
-0.16218001 0.3327885 1.9541088
-0.17784482 0.33670858 1.9765292
-0.19212583 0.33763394 1.9811587
-0.20536563 0.33672813 1.9748964
-0.21939208 0.33714488 1.9763891
-0.23310472 0.33705869 1.9748455
-0.24522761 0.33481163 1.9604859
-0.2585741 0.33438429 1.9568108
-0.27579468 0.33875841 1.9813764
-0.28557494 0.33401221 1.9521208
-0.29956529 0.33439854 1.953051
-0.31590852 0.33726305 1.9684911
-0.32762519 0.33515525 1.9546146
-0.33714426 0.33105865 1.9290112
-0.35385942 0.3340717 1.945105
-0.36353827 0.33046481 1.9222876
-0.37555978 0.32916951 1.9129845
-0.39274144 0.33233014 1.9297104
-0.39906988 0.32640266 1.8931947
-0.41429755 0.32790187 1.9000651
-0.43286681 0.33186907 1.921255
-0.43999469 0.32708994 1.8913441
-0.45130005 0.32560641 1.8806181
-0.46553463 0.32626075 1.8822806
-0.47232535 0.32180703 1.854192
-0.48545352 0.32179537 1.8518757
-0.49373317 0.31865513 1.831362
-0.51194674 0.32192287 1.847919
-0.52210915 0.32009101 1.8348825
-0.52909923 0.31645131 1.8113722
-0.54056835 0.31560013 1.8039291
-0.55368686 0.3157292 1.8020767
-0.56004602 0.31208578 1.7784718
-0.47776639 0.26030985 1.478614
-0.48193318 0.25686318 1.4565583
-0.569507 0.2970708 1.6842762
-0.62570095 0.31957352 1.8100607
-0.62785864 0.31412181 1.7759393
-0.63856238 0.31307849 1.7669525
-0.65256667 0.31366256 1.7671678
-0.65762269 0.31000587 1.7432464
-0.68103623 0.31497768 1.7681929
-0.70160431 0.31847346 1.7846249
-0.70967174 0.31627098 1.7687677
-0.72200924 0.3160162 1.7638562
-0.7380898 0.31737995 1.7679758
-0.75158018 0.31760198 1.7655932
-0.77365553 0.32138282 1.7830509
-0.78729576 0.32159188 1.7804041
-0.80174553 0.32211939 1.7794557
-0.8145892 0.32199493 1.7747991
-0.83114552 0.32331866 1.7781081
-0.86421633 0.33092472 1.8160812
-0.88546503 0.33383927 1.8278818
-0.89348418 0.33175331 1.8119879
-0.92419314 0.33802852 1.8420196
-0.94110072 0.33914542 1.8435328
-0.95265532 0.33832881 1.8343691
-0.98428547 0.34456328 1.8636049
-0.99595225 0.34373206 1.8541571
-1.0216444 0.3476972 1.8706748
-1.0119047 0.33966038 1.8220723
-1.0492811 0.34744221 1.8589716
-1.0676962 0.34882167 1.8611171
-1.0876789 0.35067013 1.8656597
-1.0982784 0.34948471 1.8538408
-1.101685 0.34607023 1.8300955
-1.120689 0.34757975 1.8325626
-1.1781051 0.36081591 1.8970605
-1.1945816 0.36134142 1.8938845
-1.2010132 0.35885277 1.8747365
-1.2425727 0.36679345 1.910351
-1.2570914 0.36665794 1.9033527
-1.269388 0.36588505 1.8929561
-1.2777342 0.36400479 1.876752
-1.2976434 0.3654241 1.8776299
1.4018887 0.37375218 1.9971551
1.3732384 0.37031862 1.9856261
1.3752708 0.3751756 2.0188391
1.3604698 0.37550059 2.0274925
1.3385695 0.37385058 2.0252934
1.3092604 0.37006667 2.0112648
1.2802161 0.36626634 1.9969281
1.2745275 0.36913669 2.0191417
1.2597737 0.36942041 2.0270698
1.2275344 0.36451891 2.0061677
1.2255695 0.36859706 2.0349669
1.2042232 0.36687636 2.0314655
1.1958647 0.36911929 2.0500016
1.1589366 0.36248612 2.0187168
1.1524676 0.36532933 2.0404644
1.1347808 0.3646456 2.0423148
1.102052 0.35904241 2.016223
1.0948628 0.36171922 2.0368547
1.0782644 0.36131939 2.0399821
1.0553395 0.35875741 2.0306823
1.042878 0.35972941 2.0414317
1.0320861 0.36131483 2.0556419
1.0159376 0.36104462 2.0591509
0.99722534 0.35984102 2.0571928
0.97141749 0.35599944 2.0398891
0.96046215 0.35756549 2.0536919
0.93666488 0.35432407 2.0395718
0.9123081 0.35076135 2.0234187
0.8961702 0.35029265 2.0251174
0.87575674 0.34810853 2.0167103
0.86320096 0.34902635 2.0263152
0.8490451 0.34931806 2.0321927
0.8274129 0.34648931 2.01967
0.81148463 0.34598988 2.0207102
0.79630452 0.34579679 2.0234675
0.7828939 0.34637934 2.0307238
0.76422602 0.34461358 2.0240178
0.74943417 0.34456077 2.0273516
0.73597157 0.34512916 2.0342968
0.71525061 0.34224758 2.0206523
0.69828671 0.3410812 2.0170951
0.68832701 0.34335926 2.0339978
0.66646695 0.33967108 2.0152013
0.65545464 0.34147054 2.0291178
0.63513958 0.33839527 2.0137613
0.62026334 0.33814222 2.0152237
0.60455364 0.33741194 2.0137386
0.58724356 0.33573121 2.0064442
0.56656951 0.33199534 1.9866558
0.52573562 0.31595275 1.8924239
0.4655126 0.28710896 1.7204763
0.4288699 0.27164465 1.6290212
0.41316342 0.26895145 1.614683
0.40027231 0.26798958 1.6107548
0.38997945 0.2687619 1.6172919
0.37649766 0.26731679 1.6102972
0.36529317 0.26744887 1.6128298
0.35302493 0.26678553 1.6104609
0.3416189 0.26675135 1.6118666
0.32942614 0.26607937 1.6093218
0.31823289 0.26619557 1.6115322
0.30464819 0.26424605 1.6010526
0.29421848 0.26498854 1.60698
0.28287446 0.26493394 1.6079769
0.27153108 0.26487541 1.6088954
0.26018873 0.26481286 1.6097353
0.24869859 0.2645874 1.6095206
0.23708132 0.26419887 1.6082487
0.22603717 0.26444215 1.6108062
0.21509837 0.26484063 1.6142678
0.20400026 0.26507622 1.6166766
0.19068088 0.26228401 1.6003821
0.17944777 0.26219255 1.6006638
0.16934402 0.2638486 1.6116694
0.15699762 0.26199749 1.6009954
0.14595893 0.26221243 1.6030117
0.13498181 0.26258272 1.6059371
0.12314481 0.26119611 1.5979608
0.11320128 0.26394904 1.6155053
0.10185201 0.26366991 1.6142687
0.089867502 0.2614733 1.6011255
0.078548834 0.26086664 1.5977567
0.067569323 0.26137203 1.6012137
0.056477029 0.26155442 1.6026235
0.045285534 0.26125425 1.600997
0.03397309 0.2598334 1.5923852
0.022992238 0.26080099 1.5985019
0.011943319 0.26208356 1.606518
0.00078038417 0.26176691 1.6045872
-0.010336459 0.26096755 1.5996186
-0.021358652 0.25984505 1.5926002
-0.033260047 0.26653439 1.6338708
-0.049948405 0.29841945 1.8309726
-0.066203125 0.31530416 1.9351716
-0.080148533 0.31735033 1.9474971
-0.093654819 0.31731823 1.9469043
-0.10721054 0.31744057 1.9472048
-0.1230181 0.32345632 1.9838706
-0.13549289 0.32037994 1.9642713
-0.15037443 0.32303673 1.9800357
-0.16402201 0.32281956 1.9779791
-0.17720973 0.3218008 1.9709133
-0.19153638 0.32284814 1.9765366
-0.20523998 0.3227753 1.9751831
-0.21839403 0.32190156 1.9688298
-0.23215893 0.3219783 1.9682738
-0.24556205 0.32157263 1.9646835
-0.25802916 0.32004887 1.9541516
-0.2723878 0.32090646 1.9582129
-0.28610611 0.32096377 1.9572849
-0.29982477 0.32101625 1.9562627
-0.3107506 0.31820434 1.937595
-0.3183589 0.31237224 1.9003661
-0.33827987 0.31860456 1.9370617
-0.34627903 0.31356081 1.9045858
-0.36258027 0.31613016 1.9186749
-0.37645191 0.31647304 1.9190623
-0.38819873 0.31506762 1.9087044
-0.39901373 0.31302521 1.8944112
-0.40944272 0.31082174 1.879096
-0.41494584 0.30513403 1.8425282
-0.4277308 0.30498388 1.8396511
-0.4423247 0.30609444 1.8443718
-0.45653474 0.30688339 1.8470613
-0.4753961 0.31066796 1.8678347
-0.47942156 0.30481502 1.8301362
-0.49671409 0.30748349 1.8439895
-0.50664049 0.30557206 1.8300768
-0.52310008 0.30759805 1.8398774
-0.52819026 0.30300286 1.8096972
-0.54160428 0.30328813 1.8088833
-0.55417156 0.30309686 1.8051369
-0.5205425 0.2782231 1.6532902
-0.45659405 0.23861185 1.4135672
-0.46183699 0.23609696 1.3963296
-0.54431117 0.2723296 1.6104099
-0.61216152 0.29988638 1.7720269
-0.62579465 0.30029958 1.771522
-0.62414044 0.29350728 1.7281386
-0.64567059 0.2976703 1.7497941
-0.65785319 0.29744643 1.7453281
-0.66578305 0.29534456 1.7297032
-0.69288814 0.30166912 1.7637544
-0.6851123 0.29285342 1.708474
-0.71298206 0.29931736 1.7430956
-0.73306215 0.30234149 1.7573307
-0.74109548 0.30037847 1.7422436
-0.7598815 0.30276632 1.7525414
-0.78677648 0.30825153 1.7807593
-0.79880279 0.30782688 1.774408
-0.81528056 0.30910367 1.7778676
-0.82728261 0.30866989 1.7713219
-0.84302926 0.30962506 1.7727374
-0.87593925 0.31675738 1.809647
-0.88512033 0.31522262 1.7964712
-0.91747606 0.32186371 1.8301454
-0.93562907 0.3234002 1.8343606
-0.95660204 0.3258526 1.8436826
-0.97225583 0.32644883 1.8422955
-0.984227 0.32580927 1.8338012
-1.0064787 0.32854334 1.8443475
-1.0136853 0.32635862 1.8269669
-1.0525402 0.33428442 1.8664973
-1.0709983 0.33560711 1.8686328
-1.0920128 0.33768556 1.8748795
-1.0926582 0.33349302 1.8459802
-1.1430752 0.3444041 1.901193
-1.133885 0.3373068 1.8560499
-1.1531351 0.3387416 1.8582623
-1.1876671 0.34457469 1.8846009
-1.2056742 0.34552953 1.8838457
-1.2098073 0.3425332 1.8613305
-1.2467098 0.34877577 1.8892995
-1.2736684 0.35212219 1.9012018
-1.2864819 0.35152563 1.8915144
-1.3405577 0.36208791 1.9420974
1.3831515 0.3530516 1.9720747
1.3944116 0.36001351 2.0183332
1.340848 0.35020638 1.9697253
1.3357201 0.35296807 1.9921445
1.3373966 0.35761485 2.0253444
1.3043377 0.35297364 2.0054595
1.2870171 0.35253015 2.0094295
1.2749569 0.35353437 2.021642
1.2591591 0.35351446 2.0278871
1.2371826 0.35173735 2.02386
1.2041688 0.34673652 2.0009401
1.1755503 0.342888 1.9844836
1.1794223 0.34853971 2.023385
1.1651956 0.34892237 2.0314841
1.1489847 0.3487131 2.0360296
1.1380228 0.35011297 2.0499768
1.1175008 0.34856969 2.0464756
1.0956922 0.34657609 2.04017
1.0767858 0.34545666 2.0389168
1.0629392 0.34595156 2.0471697
1.0360727 0.34216127 2.0297413
1.0174403 0.34101778 2.027976
1.0032346 0.34134579 2.0349336
0.98470122 0.34018883 2.0328772
0.96920609 0.34006178 2.0369213
0.95453966 0.34022599 2.0426419
0.93000835 0.33682281 2.0266569
0.92350954 0.33994591 2.0501535
0.90362108 0.33816221 2.0437725
0.89130098 0.33919841 2.0544715
0.86387348 0.3344219 2.0295718
0.84402961 0.3324652 2.0217502
0.83550465 0.33497679 2.041235
0.81358528 0.33211184 2.0276268
0.79657125 0.33118039 2.0257885
0.78103793 0.33084106 2.0275066
0.76586968 0.33064631 2.0300336
0.74628341 0.3284992 2.0203795
0.73455012 0.32979208 2.0319574
0.71811163 0.32898211 2.0304091
0.703659 0.32906714 2.0343421
0.68950385 0.32929781 2.0391099
0.67685997 0.33027601 2.0484769
0.65115362 0.32478225 2.0172822
0.64096302 0.32695374 2.0339541
0.6187436 0.32294771 2.0118144
0.59940106 0.32028851 1.9979945
0.58468956 0.32003465 1.9991966
0.56810904 0.31871957 1.9936332
0.55845827 0.32132438 2.0127172
0.53680342 0.31697774 1.9878401
0.48660275 0.29508585 1.8518027
0.42544115 0.26514882 1.6643931
0.40064728 0.25681645 1.6135064
0.39011508 0.25740501 1.6190885
0.37863454 0.25738451 1.6207509
0.36736676 0.25751188 1.6232978
0.35356763 0.25581592 1.6141757
0.34214455 0.25578353 1.6155837
0.33052319 0.25559556 1.6159433
0.31758654 0.2543408 1.6094308
0.30512145 0.25338498 1.6047606
0.29396987 0.25348848 1.606805
0.28246596 0.25328425 1.6068256
0.27179018 0.25383651 1.6116395
0.26106185 0.25438541 1.6163838
0.24774115 0.25234354 1.6044492
0.23702307 0.25288469 1.6090354
0.22625381 0.25342238 1.6135511
0.21375369 0.25197607 1.6052583
0.20235839 0.25174418 1.6047171
0.19109645 0.25166076 1.6050783
0.17983915 0.25157341 1.6053618
0.16797358 0.25056717 1.5996696
0.15753147 0.25169212 1.6076635
0.14539056 0.25006738 1.5978727
0.13445692 0.25042188 1.6007965
0.12318925 0.25016212 1.599705
0.11207966 0.2502037 1.6005075
0.10102642 0.25039408 1.6022207
0.089900017 0.25042784 1.6028719
0.078769386 0.25045773 1.6034473
0.067511313 0.25002548 1.6009841
0.056152984 0.24897821 1.5944932
0.045218986 0.24976 1.5997782
0.034027137 0.24916297 1.5960964
0.022972442 0.24947865 1.5982672
0.01186766 0.24933206 1.5973978
0.0007763856 0.24933429 1.5974408
-0.010333887 0.24979094 1.6003731
-0.021405749 0.24932697 1.5973001
-0.03255529 0.24977571 1.6000804
-0.04387759 0.25098428 1.6077238
-0.056411974 0.25722942 1.6478817
-0.077276669 0.29294762 1.8785204
-0.093594573 0.30360836 1.947049
-0.10751868 0.30479446 1.9542589
-0.12288062 0.3093344 1.9830714
-0.13446288 0.30440342 1.9506351
-0.1487218 0.3058798 1.9595267
-0.16197549 0.30521452 1.9545261
-0.17780013 0.309122 1.9789687
-0.1905655 0.30753142 1.9678713
-0.20409827 0.30730942 1.9655416
-0.21695974 0.30616796 1.957226
-0.23247173 0.30868074 1.9723872
-0.24637929 0.30890167 1.9727163
-0.25991747 0.3086606 1.9700085
-0.27248499 0.30734888 1.9603561
-0.28592455 0.3070991 1.9574724
-0.30022842 0.30775812 1.9603611
-0.31256816 0.30643404 1.9504573
-0.32494807 0.30525842 1.9414532
-0.33452162 0.3016465 1.9167907
-0.34938154 0.30289617 1.9232167
-0.35925034 0.29988667 1.9023285
-0.37715051 0.30355689 1.9240875
-0.38481897 0.29902285 1.8933691
-0.39632568 0.29767463 1.882957
-0.40896004 0.29723322 1.8782747
-0.41767427 0.29405946 1.856144
-0.42787987 0.29209659 1.8416896
-0.4413358 0.29240289 1.8416095
-0.45645812 0.29376408 1.8481531
-0.46613181 0.29164052 1.8325317
-0.46915609 0.28558433 1.791989
-0.481334 0.2852726 1.7877865
-0.49400073 0.28525916 1.7854087
-0.50612307 0.28493986 1.781039
-0.51216865 0.28129864 1.7556953
-0.51536089 0.27630132 1.7218246
-0.52674347 0.27582565 1.7163687
-0.4942427 0.2529155 1.5702095
-0.4212679 0.2107746 1.3040348
-0.46936607 0.22972676 1.4204638
-0.56990129 0.27298915 1.6881781
-0.58131808 0.27264827 1.6833018
-0.58224756 0.26750311 1.6484866
-0.59371603 0.26730901 1.6444603
-0.59531659 0.2627669 1.6134239
-0.59479123 0.25747949 1.577813
-0.59767997 0.25384182 1.5524493
-0.60957301 0.25409237 1.5510794
-0.61199033 0.25045592 1.5257257
-0.61074835 0.24547872 1.492165
-0.61398405 0.24244443 1.4705746
-0.62885523 0.24403015 1.4772604
-0.63487631 0.24218602 1.4629123
-0.6482659 0.24316737 1.4657637
-0.71328139 0.26316378 1.5841048
-0.78814834 0.28609037 1.7196226
-0.81302434 0.29043046 1.7419859
-0.84415203 0.29683307 1.7766118
-0.85698628 0.29670495 1.7716525
-0.88020831 0.30012265 1.7879305
-0.90678126 0.30456364 1.810171
-0.92924803 0.30751508 1.823301
-0.9401871 0.30662134 1.8133351
-0.97257882 0.3126494 1.8444991
-0.9915204 0.31424475 1.8491007
-1.0148113 0.31715503 1.8613576
-1.0178349 0.31373823 1.8361067
-1.0331068 0.31413832 1.8333529
-1.0708669 0.3212744 1.870042
-1.0651795 0.31535935 1.8300424
-1.1015314 0.32188264 1.8627428
-1.130798 0.32619458 1.882278
-1.1603935 0.33049098 1.9014952
-1.1763237 0.33083647 1.8976369
-1.1927837 0.3313207 1.894487
-1.1928335 0.32729036 1.8652993
-1.2364675 0.33517179 1.9044106
-1.2254715 0.32823306 1.8585401
-1.2773852 0.33810931 1.9085348
-1.2553971 0.32842234 1.8471293
-1.3086083 0.33840469 1.8971872
1.383605 0.337457 1.9744664
1.3624028 0.33610216 1.9733809
1.3562436 0.33847004 1.9942628
1.3526026 0.34152946 2.0192776
1.3074497 0.33405524 1.9813679
1.3171043 0.34057307 2.0269914
1.28 0.33501163 2.0001123
1.2737921 0.3374992 2.0215154
1.260083 0.33803657 2.0311217
1.2380929 0.33633792 2.0270855
1.2278948 0.3378402 2.0423996
1.2105271 0.33738324 2.0457146
1.1951596 0.33747905 2.0523152
1.1611615 0.33224663 2.0260947
1.1508012 0.33372775 2.0409763
1.1211945 0.32959163 2.0211155
1.1183277 0.33331046 2.0496984
1.0918518 0.32999831 2.0346434
1.0766686 0.33005348 2.040369
1.0469604 0.32559305 2.0178151
1.0404258 0.32831419 2.0399961
1.0151175 0.32510406 2.024955
0.99790055 0.32442722 2.0256701
0.98715723 0.32586658 2.0396283
0.97035897 0.32532096 2.0409997
0.94069105 0.32037494 2.0143933
0.93112409 0.32222569 2.0307231
0.9169395 0.32251289 2.0370736
