# .PCD v0.7 - Point Cloud Data file format
VERSION 0.7
FIELDS x y z
SIZE 4 4 4
TYPE F F F
COUNT 1 1 1
WIDTH 1432
HEIGHT 1
VIEWPOINT 0 0 0 1 0 0 0
POINTS 1432
DATA ascii
-0.79564792 0.10640887 1.9640235
-0.80882704 0.10627136 1.9576002
-0.82504106 0.10653047 1.9584597
-0.85109639 0.10802993 1.9821587
-0.85882384 0.1071918 1.9625311
-0.87238783 0.10709772 1.9565915
-0.89166021 0.10769612 1.9633049
-0.91065377 0.10824238 1.968936
-0.92216098 0.10789561 1.9581093
-0.94772524 0.10917893 1.97698
-0.96358722 0.10932254 1.9749125
-0.98079485 0.10961226 1.9754064
-0.99582225 0.10965338 1.9712906
-1.0103909 0.1096435 1.9661694
-1.0437942 0.11164854 1.9972919
-1.0464618 0.11035582 1.9688516
-1.0676731 0.11102737 1.9756778
-1.0985944 0.11267641 1.9998413
-1.0931126 0.11059766 1.9572724
-1.1219004 0.11199544 1.9766634
-1.1420823 0.11250862 1.9801435
-1.1729147 0.11404401 2.0015683
-1.1751428 0.11279444 1.9736416
-1.2037735 0.11407866 1.9903117
-1.2259363 0.11472546 1.9955903
-1.2282535 0.11352205 1.9683847
-1.2435493 0.11353292 1.9623805
-1.2555997 0.11325082 1.9512062
-1.2702756 0.1132094 1.9441477
-1.3035868 0.11481024 1.9653462
-1.2961943 0.11283064 1.9247147
-1.3488522 0.1160637 1.9735605
1.3856539 0.10195345 1.994032
1.3778715 0.10254521 2.0126705
1.365454 0.10280174 2.0246532
1.3529391 0.10305689 2.0365586
1.3414166 0.1033946 2.0500624
1.3120095 0.10234532 2.035728
1.3068336 0.1031837 2.0591254
1.2708536 0.10158055 2.0333023
1.2649837 0.10237414 2.055681
1.2279767 0.10063607 2.0266998
1.2107768 0.10049746 2.0299757
1.205667 0.10137181 2.0538268
1.1858767 0.1010186 2.0525672
1.1529096 0.099518552 2.027637
1.1465391 0.1003048 2.0495172
1.1289107 0.1001142 2.0512369
1.1136831 0.10013417 2.057209
1.0806934 0.098535195 2.0295007
1.0638094 0.098380022 2.0315766
1.0542274 0.098905414 2.047749
1.0413392 0.099131502 2.0576341
1.0190816 0.098459117 2.0486238
0.99918419 0.097997829 2.0438981
0.98241502 0.097833917 2.0453072
0.9707641 0.098182522 2.0574384
0.94689029 0.097286381 2.0431817
0.9339565 0.097503491 2.0523667
0.91365653 0.096946083 2.0450294
0.89749366 0.096816406 2.0466702
0.88174856 0.096728168 2.049103
0.86061174 0.096035242 2.0385149
0.85143948 0.096676536 2.0563793
0.82600951 0.095461823 2.0343659
0.81120402 0.095453143 2.0381184
0.79819345 0.095659256 2.0464211
0.77767098 0.094955906 2.0350235
0.76778281 0.095548972 2.0515373
0.74473262 0.094495192 2.0323315
0.72935611 0.094392449 2.0336144
0.72024316 0.095112666 2.0527072
0.7025311 0.094703637 2.0471816
0.68840355 0.0947707 2.0519366
0.6733191 0.094706103 2.0537436
0.65037644 0.093508787 2.0306861
0.6363709 0.093571261 2.0350823
0.61480862 0.092499696 2.0145221
0.60459864 0.093125775 2.0311296
0.58672696 0.092573479 2.021771
0.5684737 0.091931894 2.0103402
0.54171509 0.089846827 1.9669523
0.52019984 0.088544704 1.9406743
0.49381745 0.08632151 1.893885
0.50877285 0.091401428 2.0086348
0.49470037 0.09140747 2.0110898
0.47094685 0.089572556 1.9726164
0.45780754 0.089706503 1.9777316
0.41098696 0.083043247 1.8316054
0.35756198 0.074573636 1.6448977
0.34275556 0.073862888 1.6306717
0.32973644 0.073501654 1.6241571
0.31815469 0.073446512 1.6244071
0.3078703 0.07369785 1.6314496
0.29538229 0.073420726 1.6266288
0.28331497 0.073230237 1.6236835
0.27228245 0.0733025 1.6265639
0.26122388 0.073373705 1.6293697
0.24834009 0.07291548 1.6202486
0.23716851 0.072940327 1.6219046
0.22625874 0.07305219 1.6254638
0.21453314 0.072898559 1.6230068
0.20309742 0.072831877 1.6224494
0.19167924 0.072764039 1.6218123
0.18115421 0.073047914 1.6290401
0.1691027 0.072713077 1.6222876
0.15753499 0.072553471 1.6194255
0.14672637 0.072745778 1.6244425
0.13248467 0.071126848 1.5885669
0.11579754 0.067783967 1.5137243
0.10514902 0.067662954 1.5114886
0.0945981 0.067585014 1.5101763
0.08395984 0.067417607 1.5067962
0.073709473 0.067558371 1.5103271
0.062917963 0.067167826 1.5018113
0.052557271 0.067173846 1.502205
0.042138539 0.0670904 1.5005312
0.031912554 0.067359447 1.5067762
0.021405518 0.067008637 1.4989671
0.011035767 0.066833518 1.4950819
0.00072196306 0.066834137 1.495122
-0.0095855324 0.066789478 1.4940927
-0.019892085 0.066787928 1.4939921
-0.030357555 0.067138903 1.5018117
-0.040555418 0.066870011 1.4955772
-0.05083761 0.066821054 1.4942671
-0.06114414 0.066815205 1.4938849
-0.071447723 0.066808276 1.4934324
-0.079747438 0.065165646 1.4560002
-0.091861457 0.066658735 1.4893256
-0.10206513 0.066604465 1.487667
-0.11262275 0.066769958 1.4909205
-0.12314807 0.066890173 1.4931042
-0.13362022 0.066965155 1.4942191
-0.14392343 0.066950768 1.4932723
-0.15411812 0.066891216 1.4912616
-0.16461726 0.06696298 1.4921614
-0.17502049 0.066989556 1.4919956
-0.18555096 0.067059152 1.4927493
-0.19584227 0.067039534 1.4914484
-0.20747952 0.067459501 1.4999752
-0.21725041 0.06726151 1.4945692
-0.22695714 0.067062594 1.4891005
-0.23800115 0.067258969 1.4924513
-0.24958903 0.067586184 1.4986786
-0.26008844 0.067604244 1.497925
-0.27006146 0.067489363 1.4941486
-0.28109115 0.067637257 1.4961998
-0.29197225 0.067740105 1.4971898
-0.30778116 0.068939604 1.5225917
-0.333884 0.072287649 1.5957812
-0.34466732 0.072209671 1.5924886
-0.35779846 0.072613068 1.5998534
-0.36948767 0.072708204 1.6002958
-0.37959471 0.07249558 1.5938474
-0.39151973 0.07263238 1.5951024
-0.40299508 0.072680466 1.5943308
-0.41672221 0.073121063 1.6021845
-0.42955294 0.073385298 1.6060622
-0.43904558 0.073080309 1.5973079
-0.45139915 0.073254891 1.5990832
-0.46269643 0.073253706 1.5969235
-0.47342241 0.073164284 1.5927671
-0.48815638 0.073684014 1.6019298
-0.50215352 0.074071392 1.6081011
-0.51294059 0.073978558 1.6036797
-0.52400094 0.073928311 1.6001363
-0.53850085 0.074355148 1.6069467
-0.55055082 0.074432947 1.6060652
-0.64027506 0.084794283 1.828773
-0.69798905 0.090586238 1.9514567
-0.7175678 0.09129867 1.9635417
-0.73110187 0.091229387 1.9585847
-0.74531209 0.091245502 1.9554032
-0.76779181 0.092254646 1.9735548
-0.77957344 0.091965012 1.9636019
-0.7964741 0.092278831 1.9665579
-0.81080389 0.092288978 1.9629023
-0.82551026 0.092340916 1.9600632
-0.85000843 0.093467787 1.9800925
-0.87323284 0.094419345 1.9962097
-0.88581192 0.094207518 1.9874295
-0.90118909 0.094295293 1.9849457
-0.91991168 0.094724782 1.9896072
-0.9353627 0.094809219 1.9868616
-0.94739187 0.094549552 1.976778
-0.96934295 0.095272943 1.9873046
-0.98177671 0.095053278 1.9779027
-0.99637032 0.09504611 1.9728879
-1.0118539 0.095122829 1.9695442
-1.0222855 0.094729207 1.9563218
-1.054489 0.096335709 1.9845855
-1.069669 0.096363932 1.9799138
-1.0752778 0.095540971 1.95758
-1.099517 0.096373238 1.9693457
-1.1151514 0.096439123 1.9651964
-1.1178852 0.095402338 1.9383758
-1.1810678 0.09948425 2.0161228
-1.1884725 0.098823376 1.9967352
-1.2033814 0.098795332 1.9901906
-1.2193012 0.09884993 1.9852394
-1.2246975 0.098060586 1.9631703
-1.2367638 0.097818039 1.9521167
-1.2487398 0.097574316 1.9409889
-1.2649719 0.097664967 1.9364946
-1.298229 0.099052474 1.9577411
-1.3135304 0.099053666 1.9511998
-1.3400202 0.099888816 1.9610786
1.3863438 0.086262837 1.9955066
1.3897853 0.087470174 2.0306866
1.3539027 0.086201817 2.0078681
1.3503082 0.086983569 2.0330453
1.32684 0.086488485 2.0280919
1.3105092 0.086452313 2.0338554
1.2984264 0.08669892 2.0462539
1.2825522 0.086695313 2.0526352
1.2630103 0.086440623 2.0529225
1.2445607 0.08625517 2.054749
1.2215705 0.085746251 2.0486767
1.1997349 0.085306235 2.0441105
1.1755412 0.084684759 2.0350039
1.1549735 0.084311426 2.0317523
1.1490633 0.085012428 2.0545244
1.1304451 0.084779568 2.0545049
1.1095228 0.08436504 2.0499227
1.0845215 0.083624341 2.0371959
1.0662051 0.083385281 2.0366356
1.0525 0.083505183 2.0448177
1.0364956 0.083443493 2.04844
1.0209391 0.083416574 2.0528331
1.0066854 0.083496884 2.0598052
0.98550993 0.082996741 2.0522425
0.96661043 0.082675643 2.0490105
0.94530225 0.082135081 2.0401666
0.93403757 0.082463816 2.0529845
0.91333085 0.081956044 2.0447299
0.89637542 0.081773601 2.0445342
0.87907815 0.081553258 2.0432818
0.86725092 0.081841536 2.0547917
0.84923488 0.081545644 2.0514445
0.83317745 0.081430629 2.0525813
0.82081956 0.08167956 2.0628877
0.80331355 0.081415959 2.0600731
0.78021967 0.0805654 2.0421641
0.76089215 0.080078565 2.0334046
0.74889636 0.080359399 2.0441983
0.73076093 0.079979479 2.0379763
0.71800685 0.080185041 2.0467014
0.70227146 0.080059282 2.0468333
0.68814927 0.080115996 2.0515864
0.67214262 0.079951026 2.0505402
0.65709329 0.079895124 2.0522282
0.63524348 0.078991063 2.0318546
0.6134159 0.078047849 2.010323
0.60352087 0.078614138 2.0278831
0.58429134 0.077962458 2.0137117
0.56420588 0.077161215 1.9955245
0.54202765 0.076025419 1.9684824
0.50509691 0.072706409 1.8842524
0.48835844 0.072193302 1.8731438
0.50930655 0.077377364 2.0111489
0.49213931 0.076901197 2.0009863
0.48066339 0.077312507 2.0140224
0.4453243 0.073794328 1.9237547
0.41059095 0.070160262 1.8301775
0.35654336 0.062885702 1.6404827
0.34095427 0.062136032 1.6223319
0.32957014 0.062127464 1.6236402
0.31799406 0.062080815 1.6238885
0.30679747 0.062107541 1.6260198
0.29505619 0.062021825 1.6251242
0.28351176 0.061972298 1.6251295
0.27165425 0.061847363 1.6230817
0.26093504 0.061981998 1.6278578
0.24881347 0.061780632 1.6236717
0.23762061 0.061801698 1.6253308
0.2255978 0.061598238 1.6209741
0.21455352 0.061654642 1.6234659
0.20385446 0.061821971 1.6288582
0.19169748 0.061540876 1.6222705
0.18018685 0.061445203 1.6205603
0.17004241 0.061833642 1.6316916
0.15774173 0.061437473 1.6218717
0.14602807 0.061226811 1.6169378
0.13241512 0.06011891 1.5880187
0.11543143 0.057142247 1.509169
0.10488455 0.057077225 1.5079268
0.094421707 0.057048649 1.5076098
0.083857872 0.056944415 1.5052252
0.073427305 0.056913994 1.504764
0.062841222 0.056733143 1.5002373
0.052527767 0.056775615 1.5016296
0.042003792 0.056555521 1.4959589
0.031664331 0.056521393 1.4952114
0.021435821 0.056748029 1.5013874
0.011058731 0.056637317 1.4985006
0.00072346529 0.056637842 1.4985408
-0.0095928013 0.05652529 1.4955126
-0.019907173 0.056523994 1.4954119
-0.030300528 0.056671306 1.4992374
-0.040505711 0.056481268 1.4940006
-0.050876137 0.056551985 1.4956865
-0.061109591 0.05647229 1.4933074
-0.070603959 0.055831142 1.4758859
-0.081593521 0.056384958 1.4903371
-0.092357337 0.056676198 1.4977249
-0.10193955 0.0562567 1.4860923
-0.11226109 0.056284636 1.4863584
-0.12259083 0.056311648 1.4865535
-0.13328066 0.056487113 1.4906592
-0.14365254 0.056512296 1.4907095
-0.15403116 0.056536578 1.4906886
-0.16463293 0.056634586 1.4925829
-0.17503713 0.056657054 1.4924172
-0.18556859 0.056715913 1.4931717
-0.19573206 0.056662031 1.4908795
-0.20627941 0.056719102 1.4914894
-0.21670184 0.056738015 1.4910363
-0.22787277 0.056942243 1.4954516
-0.23958133 0.057257153 1.5027457
-0.24863742 0.056938309 1.4931877
-0.2606205 0.057288453 1.5013051
-0.27131844 0.057339981 1.5014594
-0.28111741 0.057204761 1.4966255
-0.29199946 0.057291728 1.4976162
-0.30780977 0.058306199 1.5230256
-0.33371219 0.061100699 1.5952578
-0.34490865 0.061108965 1.5939205
-0.35545462 0.061005086 1.5895784
-0.3686308 0.061345208 1.5968571
-0.38031778 0.061424773 1.5972217
-0.39273572 0.061614458 1.600415
-0.40375987 0.061581001 1.5976968
-0.41551393 0.061657667 1.5978065
-0.42575416 0.061511572 1.5920345
-0.4380357 0.061660334 1.5939114
-0.45144004 0.061955743 1.5995449
-0.46218702 0.061880924 1.5954639
-0.47713327 0.062358491 1.6056912
-0.48646811 0.062097516 1.5966539
-0.49983677 0.062351625 1.6009306
-0.51057255 0.062273294 1.596525
-0.52373946 0.062488433 1.5996519
-0.53382754 0.062334891 1.5931891
-0.55445462 0.063392721 1.6178902
-0.63246691 0.070834264 1.8066503
-0.6987192 0.07668703 1.9539124
-0.7179718 0.077252842 1.9650577
-0.73914778 0.07799986 1.9807155
-0.74184346 0.076805294 1.946632
-0.75418597 0.076635294 1.9387101
-0.78220516 0.078035437 1.970692
-0.79915184 0.07830064 1.9736326
-0.81049585 0.078017212 1.9625612
-0.82365602 0.07791537 1.9560369
-0.85086548 0.079123452 1.982523
-0.87251312 0.079782657 1.9949743
-0.8802309 0.079167373 1.9752307
-0.89962566 0.079605214 1.9818982
-0.90665817 0.07895264 1.9611406
-0.93079191 0.079786368 1.9775029
-0.95691425 0.080762252 1.997233
-0.97290921 0.080866762 1.9951056
-0.98230302 0.080427662 1.9794024
-0.99556112 0.080313228 1.9717045
-1.0015042 0.07962057 1.9496695
-1.031112 0.080802187 1.9737813
-1.0433955 0.080612026 1.9639804
-1.0669289 0.081284218 1.9752419
-1.0825429 0.081342913 1.971351
-1.1102644 0.082297474 1.9891919
-1.1338762 0.082925998 1.9989034
-1.1467627 0.082763888 1.9892961
-1.1600779 0.082636558 1.9804683
-1.1840023 0.083258517 1.9896206
-1.2014297 0.083413631 1.9873925
-1.2152474 0.083317392 1.9790428
-1.2242783 0.082899407 1.9629463
-1.2443162 0.083227843 1.9645872
-1.2703528 0.083944745 1.9753096
-1.2732339 0.083132684 1.9496988
-1.2686853 0.081860349 1.9132876
-1.2925568 0.08243005 1.9202505
-1.3255595 0.083562292 1.9402087
1.3921188 0.07081522 2.0042796
1.3741635 0.070704676 2.0080831
1.3645625 0.07102643 2.0241952
1.3432561 0.070739284 2.0227423
1.3263927 0.070682086 2.0277975
1.3100661 0.070652455 2.0335569
1.2926621 0.070563301 2.0374944
1.2652625 0.069919564 2.0251458
1.2750819 0.0713422 2.0730875
1.2395012 0.070228517 2.0467236
1.2287852 0.070513144 2.0612588
1.174165 0.068253055 2.0005944
1.1885505 0.069997497 2.0580826
1.1604586 0.069253474 2.0418575
1.1447804 0.069240175 2.0471914
1.1314846 0.069372579 2.0567906
1.102035 0.068504512 2.0363617
1.0808643 0.068133898 2.0306487
1.081488 0.069146141 2.0664291
1.0512116 0.068183452 2.0426695
1.034776 0.06810341 2.0453887
1.014377 0.067756258 2.0399096
1.0076303 0.068324305 2.0621257
0.97655076 0.067234524 2.033812
0.96117085 0.067208491 2.0377581
0.94202995 0.066914499 2.0334141
0.9291693 0.0670643 2.042567
0.9093464 0.066708274 2.036103
0.89644039 0.066856258 2.0450442
0.8748247 0.066348694 2.0336778
0.86345243 0.066613905 2.0460823
0.85081607 0.06678918 2.0556509
0.83137077 0.066426672 2.0484524
0.81280279 0.066122368 2.042943
0.79868275 0.066175349 2.0484614
0.78311169 0.066107832 2.0501425
0.76512337 0.065829746 2.0451472
0.73733991 0.064681515 2.012759
0.73081475 0.065389492 2.0384731
0.72496122 0.06618765 2.0670233
0.69974613 0.065214574 2.0397611
0.67620409 0.064359389 2.0160453
0.66539031 0.064704813 2.0301251
0.64231044 0.063846298 2.0060463
0.63114446 0.06415996 2.01898
0.61925465 0.064412884 2.0299408
0.60413241 0.064333618 2.0302885
0.58654767 0.063981868 2.0218799
0.5723477 0.063991003 2.0248754
0.54206872 0.062156886 1.9689542
0.52824771 0.062163163 1.9716429
0.52417457 0.063347824 2.011976
0.50958896 0.063292488 2.0125983
0.49051812 0.062661044 1.9946657
0.47471154 0.062421758 1.9892129
0.45699018 0.061908599 1.9748704
0.41018847 0.057301078 1.8286611
0.36056778 0.051990502 1.6594384
0.34383234 0.051226135 1.636417
0.33136877 0.051067527 1.6328448
0.32030255 0.051120646 1.6360483
0.30884111 0.051112276 1.6372126
0.29755586 0.051133536 1.6392812
0.28455505 0.050849918 1.6314231
0.27298325 0.050808713 1.631354
0.26095551 0.0506754 1.6282421
0.24973299 0.050693456 1.6299841
0.23849879 0.050710745 1.6316495
0.22711696 0.050696798 1.6322478
0.21521913 0.050560161 1.6288035
0.20362468 0.050483637 1.6272578
0.19217746 0.050436765 1.6266232
0.1805294 0.050328087 1.6239219
0.16913229 0.050279576 1.6231267
0.15717924 0.050047159 1.6162829
0.14621782 0.05011908 1.6193086
0.13234344 0.049121708 1.5873953
0.11604426 0.046962842 1.5174965
0.10461836 0.046543259 1.5042924
0.094305567 0.046580959 1.5059682
0.083919622 0.046587385 1.5065763
0.073288538 0.046440303 1.5021217
0.062763475 0.046322998 1.4985918
0.052531973 0.046418827 1.5019813
0.042034928 0.04626945 1.4973089
0.031729702 0.046302672 1.4985596
0.021451667 0.046426851 1.5027387
0.01108152 0.046397466 1.5018502
0.00072256837 0.046245065 1.4968928
-0.0095872283 0.046183616 1.4948636
-0.019895604 0.046182554 1.494763
-0.030183028 0.046150178 1.4935927
-0.040482156 0.046147618 1.4933516
-0.050779328 0.046144322 1.4930402
-0.06111449 0.046170834 1.4936574
-0.068860918 0.044516172 1.4392909
-0.078788139 0.044510853 1.4387871
-0.092669174 0.046490274 1.5030646
-0.1008646 0.045505911 1.4704854
-0.11212105 0.045956325 1.4847139
-0.1229258 0.046161603 1.4908875
-0.13302699 0.046091359 1.4880224
-0.14347422 0.046142489 1.4890701
-0.15445015 0.046345413 1.4950166
-0.1647545 0.046333998 1.4939277
-0.17516625 0.046352353 1.4937614
-0.18533927 0.046309002 1.4915391
-0.19600512 0.046386871 1.4932132
-0.2075156 0.046646785 1.5007539
-0.21771501 0.046601232 1.4983135
-0.22744358 0.046463646 1.4928395
-0.23819807 0.046538513 1.4942149
-0.24816936 0.046460483 1.4905822
-0.26030242 0.046777204 1.4996903
-0.26993188 0.046636928 1.4939433
-0.28095663 0.046739195 1.4959977
-0.29164338 0.046779919 1.4960085
-0.30489254 0.047214638 1.5086854
-0.33353528 0.049924459 1.5946578
-0.34367868 0.049779549 1.5884352
-0.35807517 0.050240461 1.6016674
-0.36643153 0.049851637 1.5874934
-0.38034692 0.05021973 1.5976028
-0.39347383 0.050465614 1.6037109
-0.40476131 0.050468463 1.6019574
-0.41380063 0.050198432 1.5914134
-0.4257865 0.050290655 1.592416
-0.43806893 0.050412275 1.5942941
-0.45147416 0.050653785 1.5999293
-0.46222186 0.050592605 1.595848
-0.47350067 0.050591093 1.5936126
-0.48852557 0.050980572 1.6037378
-0.49780732 0.050766632 1.5946332
-0.51211941 0.051063802 1.6016759
-0.52285361 0.050999034 1.5971876
-0.53481144 0.051053844 1.5964223
-0.54999804 0.051408157 1.605033
-0.63054734 0.057732556 1.801425
-0.70010746 0.062817611 1.9581573
-0.71598083 0.062980495 1.9598997
-0.72636145 0.062663235 1.9465177
-0.75250131 0.063691825 1.975159
-0.76683581 0.063701592 1.9718257
-0.77347285 0.063083209 1.9488565
-0.79660201 0.063807964 1.9676275
-0.80828118 0.063606218 1.9574976
-0.83604479 0.064655326 1.9860367
-0.83722162 0.063647635 1.9508281
-0.86422062 0.06460388 1.9762156
-0.8827197 0.064903773 1.9812096
-0.90215325 0.065261573 1.9878634
-0.91505748 0.065143175 1.9798048
-0.92916727 0.065112971 1.9743781
-0.94582552 0.065259531 1.9742659
-0.95904845 0.065168209 1.9668179
-0.97045285 0.064957894 1.9556925
-1.0014523 0.066046074 1.9838247
-1.0151908 0.065980822 1.9768859
-1.0316463 0.066091485 1.9751745
-1.0458009 0.066053741 1.9689066
-1.0622844 0.06616205 1.9669405
-1.0821427 0.066474736 1.9709828
-1.1064706 0.067049794 1.9827123
-1.1236625 0.067182854 1.9811304
-1.1250103 0.066377573 1.9516373
-1.1430856 0.066567361 1.9516026
-1.1861206 0.068187132 1.9935859
-1.203573 0.06831383 1.991345
-1.2059745 0.067593761 1.9642003
-1.2396191 0.068620995 1.9881178
-1.2321755 0.067376412 1.9456438
-1.2623811 0.068195716 1.9631976
-1.2608274 0.067300253 1.9309262
-1.2967902 0.068404846 1.9563955
-1.2826611 0.066872165 1.9058052
-1.3284608 0.068463221 1.9448718
1.4041146 0.055482268 2.0220027
1.3792987 0.055127639 2.0159621
1.3613074 0.055040713 2.0196464
1.3477353 0.055132508 2.0298557
1.3346347 0.055246014 2.0408108
1.3112192 0.054930143 2.0356758
1.291139 0.054747999 2.0353897
1.2653357 0.054315679 2.0255752
1.2605705 0.054786935 2.049633
1.2323631 0.054238364 2.0351582
1.227838 0.054731391 2.0599706
1.2104559 0.054656677 2.0632162
1.1876246 0.05433071 2.0567768
1.1698568 0.054230791 2.0588272
1.1477569 0.053924635 2.0528607
1.1214893 0.05341161 2.0387886
1.1172345 0.053947266 2.0649655
1.071588 0.05247122 2.0133855
1.0520576 0.052250084 2.0100715
1.0517267 0.052989896 2.0439768
1.0361812 0.052973609 2.0484853
1.0113385 0.052474439 2.0340478
0.99765503 0.052547939 2.0418534
0.97617692 0.052206833 2.03332
0.96715975 0.052531898 2.0508447
0.95461208 0.052672472 2.0610726
0.93950647 0.052674167 2.0657558
0.91263956 0.052005704 2.0438216
0.896891 0.051959109 2.0463684
0.87997788 0.051842317 2.0460353
0.85693735 0.051354311 2.0308115
0.8451677 0.051536471 2.0421863
0.82768404 0.051370479 2.0395832
0.81542033 0.051528331 2.0498548
0.7832166 0.050408658 2.0087719
0.78103119 0.051215205 2.0449357
0.7655161 0.05116187 2.0464845
0.74660486 0.050875016 2.0385206
0.73052275 0.050773337 2.0379286
0.72730446 0.051579822 2.0740345
0.69914305 0.050614107 2.0382643
0.67908555 0.050206501 2.0249734
0.66697598 0.050381556 2.0352716
0.64567852 0.049854964 2.0169146
0.63592124 0.050215747 2.0346467
0.62189877 0.050248653 2.0389435
0.60954803 0.050421409 2.0488961
0.58824229 0.049843803 2.0280321
0.57211226 0.04968686 2.0243013
0.53472596 0.04762857 1.9423282
0.53880936 0.049252909 2.0116329
0.53071207 0.04982141 2.0375257
0.51814622 0.049990304 2.0469177
0.49339193 0.048959374 2.0067008
0.48119032 0.049150091 2.0168307
0.46283436 0.048704721 2.0005794
0.44320446 0.048093323 1.977342
0.41423681 0.046396699 1.9089744
0.40211311 0.046536576 1.9166493
0.3885254 0.046510819 1.917388
0.36048171 0.044691041 1.8434412
0.34209681 0.043978497 1.8153933
0.31756607 0.042390905 1.7507765
0.3146981 0.043683697 1.8060988
0.30111772 0.043535128 1.8012992
0.28542331 0.043054793 1.7825768
0.27719852 0.043708734 1.8111689
0.26415583 0.043629009 1.80906
0.2521103 0.043714229 1.8137907
0.23910423 0.043633111 1.8115029
0.22306679 0.042959221 1.78432
0.21415085 0.043658208 1.8145951
0.19848552 0.042982593 1.7871958
0.18299882 0.042258561 1.7576805
0.17118293 0.04233953 1.7618731
0.15637934 0.041637383 1.7331272
0.13942599 0.040199086 1.6733774
0.11620258 0.036529843 1.5197749
0.10469369 0.036180176 1.5055716
0.094249785 0.036162023 1.5052528
0.083759896 0.036119543 1.5038642
0.073437899 0.036147688 1.5053989
0.062767491 0.035985354 1.4988724
0.052535351 0.036059808 1.5022629
0.042065397 0.035967503 1.4985887
0.031501345 0.035708409 1.4878461
0.021410678 0.035994813 1.5000213
0.01107493 0.036019463 1.5011317
0.00072261476 0.035924822 1.4971731
-0.009594189 0.035900827 1.4961432
-0.019949555 0.035971232 1.4990417
-0.030184967 0.035851106 1.4938724
-0.040645629 0.035991568 1.4996276
-0.050816227 0.035870302 1.4943193
-0.061118413 0.035867158 1.4939373
-0.070519619 0.035412472 1.4745115
-0.079874769 0.035052259 1.459022
-0.091335513 0.03559326 1.4813935
-0.10154805 0.035587862 1.4807354
-0.11257525 0.035842836 1.4909741
-0.12277104 0.035812538 1.4891745
-0.1332998 0.035876542 1.4912894
-0.14376804 0.035916235 1.4923352
-0.15334143 0.035742037 1.4843576
-0.16519882 0.03608866 1.4981836
-0.17506212 0.035984445 1.4930494
-0.18535101 0.035974458 1.49182
-0.19575992 0.03598759 1.4915116
-0.20657982 0.036071166 1.4941031
-0.2173018 0.036130473 1.4956272
-0.2283522 0.036236491 1.4990525
-0.23836884 0.036176372 1.4954844
-0.25013527 0.036375742 1.5027008
-0.2603187 0.036338139 1.4999737
-0.26994875 0.036229171 1.4942262
-0.28133947 0.03635582 1.4982467
-0.29185086 0.036363836 1.4972736
-0.30471537 0.036654353 1.5079912
-0.33416423 0.038853742 1.5978974
-0.34495658 0.038811829 1.5946022
-0.35701665 0.038910713 1.5970916
-0.3691273 0.03900893 1.5994908
-0.38082907 0.039059423 1.5998534
-0.39137343 0.038991716 1.5952739
-0.40284461 0.039017547 1.5945051
-0.41432437 0.039042782 1.593654
-0.42657995 0.039137874 1.5956203
-0.43783289 0.039138447 1.5936353
-0.45123231 0.039326061 1.5992738
-0.46335223 0.039395727 1.5999988
-0.47719777 0.039605282 1.6063875
-0.48826614 0.039579958 1.6030902
-0.4996087 0.039577506 1.600672
-0.51335722 0.039761513 1.6057985
-0.52689266 0.039921358 1.6098604
-0.538306 0.039917037 1.6071699
-0.55484986 0.040285397 1.6195458
-0.62075227 0.044149186 1.7734416
-0.7001487 0.04879871 1.9585391
-0.71431983 0.048808854 1.9555829
-0.72813946 0.048795056 1.9515864
-0.75395936 0.049570773 1.9792873
-0.76760036 0.049531825 1.9740784
-0.78120923 0.049492273 1.9687754
-0.79739362 0.049614377 1.9698712
-0.81704432 0.049944084 1.9791626
-0.83031386 0.04987907 1.9725931
-0.8435359 0.049813468 1.9659332
-0.86148524 0.05002455 1.9701893
-0.87711197 0.050096046 1.968804
-0.88824946 0.049912978 1.9572674
-0.91594362 0.050651308 1.9820195
-0.92879784 0.050558727 1.9738696
-0.93901348 0.05032758 1.9602176
-0.95300859 0.050302941 1.9546164
-0.97713178 0.050805639 1.9695437
-1.005987 0.051535964 1.9931673
-1.021603 0.051576693 1.9897603
-1.0353853 0.051525004 1.98268
-1.0500557 0.051518362 1.977271
-1.0599848 0.051282495 1.9629397
-1.0917693 0.052095991 1.9889489
-1.1065341 0.052086327 1.9831229
-1.1109797 0.051597662 1.9588891
-1.1419487 0.052337471 1.9815514
-1.1531969 0.052165974 1.9692994
-1.1739918 0.052425187 1.9733421
-1.2005577 0.05293227 1.9866201
-1.2310078 0.053595785 2.005599
-1.2091852 0.051995162 1.9392275
-1.2365017 0.052520804 1.9528303
-1.2581531 0.052796047 1.9568738
-1.2657923 0.052483749 1.9388919
-1.3029079 0.053386595 1.9660045
-1.3027183 0.052757632 1.9361508
-1.325174 0.053049691 1.9403272
1.3922622 0.039205343 2.0050416
1.3698118 0.039016161 2.0022261
1.3591437 0.039162081 2.0166485
1.3444935 0.039195344 2.0251727
1.3259836 0.039115544 2.0277188
1.3080453 0.039050873 2.0309463
1.2938586 0.039098009 2.0399446
1.2769803 0.03906396 2.0445929
1.2491649 0.038690306 2.0311811
1.2308714 0.038605854 2.032908
1.2034556 0.038229451 2.0189869
1.2004459 0.038628642 2.0462582
1.1692815 0.038120437 2.0249996
1.1586111 0.038275726 2.0391164
1.1385889 0.038122099 2.0365672
1.1296822 0.038341522 2.0540235
1.1078221 0.038121298 2.0476658
1.0875103 0.037948903 2.043756
1.0682323 0.03780818 2.0414362
1.0513171 0.037748225 2.0433984
1.0353286 0.037720259 2.0470102
1.019788 0.037708029 2.0513935
1.006423 0.037777089 2.0601566
0.98051959 0.037370395 2.0426538
0.97398281 0.037700646 2.0656431
0.95005959 0.037357707 2.051389
0.92802906 0.037079345 2.0405483
0.90903318 0.036915097 2.0359001
0.89772743 0.037062872 2.0485072
0.87805355 0.036864322 2.0417418
0.86238146 0.036829837 2.0440249
0.84634423 0.036778275 2.0452635
0.83481711 0.036924358 2.0575066
0.81215149 0.036574148 2.0417867
0.79551739 0.036487617 2.0407729
0.77681291 0.036301076 2.0340166
0.76485384 0.036428649 2.0449097
0.75244409 0.036539331 2.0547938
0.73323584 0.036317702 2.0457623
0.71057475 0.035912525 2.0261774
0.69691873 0.035955079 2.031935
0.68669313 0.03618018 2.0480363
0.6642226 0.035755895 2.027009
0.6514591 0.035846915 2.0353122
0.63654214 0.03582089 2.0368507
0.62540263 0.036011156 2.0507209
0.6078766 0.035833985 2.0434375
0.58439684 0.035288677 2.0148718
0.57267809 0.035444058 2.0265169
0.55793148 0.035415202 2.0274858
0.54628193 0.035586573 2.0399437
0.5247308 0.035104774 2.0145841
0.51061779 0.035107672 2.0171487
0.49317747 0.034875438 2.0060153
0.4777571 0.034776609 2.0025237
0.46509278 0.034878485 2.0106091
0.45168996 0.034929607 2.0156877
0.43571556 0.034778755 2.0089476
0.41476205 0.034207221 1.9776124
0.39957708 0.034088489 1.9725537
0.37610608 0.033229221 1.9241915
0.34192914 0.031325646 1.8146675
0.31634241 0.030093215 1.7441356
0.31267035 0.030930333 1.7945309
0.30309361 0.031228628 1.8133904
0.29719272 0.031947937 1.8568903
0.29476234 0.033122409 1.9270838
0.29024133 0.034162283 1.9894112
0.27328026 0.033768605 1.9675727
0.25870663 0.033644117 1.9614596
0.24718049 0.033924095 1.9790548
0.23310199 0.033866063 1.9767226
0.21917611 0.033824362 1.9752852
0.20394617 0.033562515 1.9608209
0.19103241 0.033671711 1.9681377
0.17615783 0.033425551 1.9544568
0.14963305 0.030744862 1.7971742
0.11613269 0.026017115 1.5189914
0.10463005 0.025767913 1.5047858
0.094254293 0.025771881 1.5054642
0.083598822 0.025690872 1.5010803
0.073393203 0.025744751 1.5046113
0.06301894 0.025747478 1.5050768
0.052434117 0.025648285 1.4994758
0.042011883 0.025599416 1.4967998
0.031796109 0.025685493 1.5020496
0.021439957 0.025686564 1.5022312
0.011097368 0.025721056 1.5043418
0.00072647067 0.025738215 1.5053821
-0.009600997 0.025602661 1.497353
-0.019963684 0.025652833 1.5002514
-0.030286375 0.025634903 1.4990803
-0.040459897 0.025531968 1.4928415
-0.050818667 0.025563981 1.4945288
-0.061080903 0.025544824 1.4931479
-0.069341317 0.024814812 1.4497501
nan nan nan
-0.090730973 0.02519743 1.4716215
-0.10087589 0.025193606 1.4709678
-0.11161205 0.025324628 1.4782217
-0.12293954 0.025556615 1.491377
-0.1339229 0.025686711 1.4984708
-0.1437749 0.02559671 1.4925451
-0.15385717 0.025557015 1.4895396
-0.16455583 0.025618264 1.4924308
-0.1751857 0.025662197 1.4942526
-0.18609196 0.025739465 1.4979844
-0.19641317 0.025731919 1.4966795
-0.20699625 0.025757719 1.4972856
-0.2170274 0.025715653 1.4938591
-0.22791576 0.025774362 1.496298
-0.23962645 0.025916891 1.5035969
-0.25030953 0.025941009 1.5038997
-0.26033089 0.025897367 1.5001858
-0.26996136 0.025819706 1.4944378
-0.28007376 0.025792191 1.4915779
-0.29205388 0.025932489 1.4984679
-0.30472952 0.026122713 1.5082054
-0.33357137 0.02763976 1.5951873
-0.34434411 0.027609907 1.5918958
-0.35616863 0.027663615 1.5934139
-0.36936703 0.027817532 1.6006935
-0.38061714 0.027819972 1.5991086
-0.39186347 0.027822001 1.5974449
-0.40310565 0.027823636 1.5957029
-0.41384462 0.027791385 1.5919456
-0.42608756 0.027859174 1.5939161
-0.43732771 0.027859595 1.5919343
-0.44990733 0.027943186 1.5946889
-0.46447581 0.028143205 1.6040738
-0.47355044 0.028008739 1.5941494
-0.48799923 0.028190998 1.6023644
-0.49992642 0.028222604 1.6018589
-0.51277655 0.028303746 1.6041245
-0.52321631 0.028251208 1.5986803
-0.53455216 0.028248262 1.5960155
-0.54973376 0.028444424 1.6046323
-0.60701376 0.030766314 1.7340262
-0.70051384 0.034794237 1.9597673
-0.71469194 0.034801457 1.9568089
-0.73060113 0.034891061 1.9584365
-0.75399244 0.035327852 1.9795775
-0.76907361 0.035366304 1.9781005
-0.78124338 0.035271909 1.9690657
-0.79593784 0.03529283 1.9664508
-0.80305767 0.034983054 1.9452211
-0.82418489 0.035283633 1.9581234
-0.83378184 0.035088774 1.9432265
-0.84799296 0.035091355 1.9392961
-0.87229931 0.035504755 1.958124
-0.89075089 0.035670348 1.9630312
-0.91264951 0.035966523 1.9750464
-0.93010694 0.036081154 1.9768853
-0.94763756 0.03619504 1.978575
-0.95566195 0.035947889 1.9603132
-0.97496599 0.036126081 1.9653573
-1.0073736 0.036777411 1.996153
-1.0239164 0.036839046 1.9945189
-1.0354297 0.036720559 1.9829837
-1.0538297 0.036846194 1.9846514
-1.0600302 0.036547732 1.9632421
-1.0913382 0.03711123 1.9883786
-1.1002861 0.036909413 1.9720585
-1.1110276 0.036772344 1.9591938
-1.1395165 0.037218541 1.9775208
-1.1572649 0.037306909 1.9765241
-1.1836991 0.037669409 1.9900123
-1.201638 0.037755802 1.9886483
-1.2045363 0.037373375 1.9623642
-1.2344849 0.037829317 1.9803516
-1.2408102 0.037559047 1.9599146
-1.2232577 0.036581241 1.9023924
-1.2680216 0.037468094 1.9425598
-1.2980213 0.03790294 1.9588019
-1.3088813 0.037775278 1.9456117
-1.3661727 0.038975179 2.0010698
1.3735802 0.023082808 1.9780859
1.3687284 0.023265442 2.000787
1.3619628 0.023419416 2.0210209
1.3522345 0.023525463 2.0370798
1.3075143 0.023018021 1.999415
1.2908503 0.022998223 2.0042005
1.3002882 0.023448646 2.0503156
1.2585784 0.022976439 2.0150616
1.2538894 0.023176722 2.0390766
1.2427523 0.023261381 2.0528347
1.2080717 0.022901881 2.0269437
1.1984676 0.023014605 2.0430143
1.1832355 0.023020798 2.0495028
1.1522591 0.022716757 2.0280039
1.1371661 0.022721875 2.0341542
1.1388172 0.023066279 2.0709107
1.1045425 0.022682477 2.0417087
1.0898762 0.022696216 2.0483856
1.0673412 0.022544144 2.0398691
1.0577137 0.022664245 2.0560744
1.0344611 0.022491634 2.0454302
0.99504077 0.021957112 2.0013828
1.0012168 0.022427786 2.0495667
0.99559987 0.022644702 2.0744548
0.9697724 0.02240153 2.0567932
0.9521749 0.022343773 2.0561366
0.93258077 0.022236547 2.0507772
0.91351545 0.022138624 2.0461586
0.89695573 0.022099171 2.0468762
0.88435924 0.022157684 2.0566587
0.8643375 0.022028966 2.0488384
0.83649182 0.021692839 2.021415
0.82288826 0.021720655 2.0280266
0.80997205 0.021767952 2.036406
0.79986995 0.021894023 2.0521634
0.78179699 0.021802563 2.0473056
0.76974797 0.021878807 2.0582328
0.7377789 0.021380752 2.0145819
0.74130046 0.021911863 2.0685716
0.71684051 0.021620667 2.0443168
0.69210619 0.02130891 2.0179322
0.68166167 0.021433214 2.0330529
0.67444706 0.021666676 2.0585847
0.65087295 0.021373285 2.0336018
0.63241404 0.021238364 2.023675
0.61557209 0.021152744 2.0183771
0.59798509 0.021036835 2.010067
0.58745676 0.021169657 2.0256348
0.57593536 0.02127243 2.0382638
0.56005579 0.021215364 2.0353961
0.5452711 0.02119787 2.036272
0.52950114 0.021140097 2.0331697
0.51209497 0.021011982 2.023159
0.49603647 0.020933433 2.017863
0.48260921 0.020964578 2.0231471
0.46801525 0.020945391 2.023469
0.45539388 0.021016039 2.0324719
0.44077846 0.020996248 2.032599
0.42394224 0.020865839 2.0218527
0.39840719 0.020283587 1.9668572
0.36203238 0.019088315 1.8517294
0.32816663 0.017941914 1.7411176
0.316883 0.017989561 1.747252
0.30399922 0.017946541 1.744446
0.30130473 0.018526461 1.8027091
0.29735881 0.019076373 1.8580521
0.28517082 0.019123411 1.8639914
0.28222772 0.019824294 1.9341779
0.27629203 0.020374343 1.9895498
0.26273698 0.020390745 1.9923795
0.24706532 0.020235609 1.9782475
0.23380661 0.020271499 1.982866
0.2194019 0.020206315 1.9774572
0.20497903 0.020130698 1.9709502
0.19103843 0.02009506 1.9683211
0.17429312 0.019736368 1.9337232
0.1502959 0.018429032 1.8053142
0.11726832 0.015678184 1.5340896
0.10483936 0.015408398 1.5079187
0.094009906 0.015340127 1.5016124
0.083821632 0.015372526 1.5052139
0.073443763 0.0153744 1.5057503
0.062938146 0.015345743 1.5032189
0.0527125 0.015387509 1.5076104
0.042207606 0.015348255 1.5039363
0.03181807 0.015339039 1.5031892
0.02144064 0.01532958 1.502371
0.011083121 0.01532997 1.5024822
0.00072697148 0.015370505 1.5065221
-0.0096203415 0.015309806 1.500492
-0.019911649 0.015269057 1.4963918
-0.030307334 0.015308851 1.5002197
-0.040568441 0.015277711 1.4969788
-0.050719395 0.015226133 1.4916699
-0.061123312 0.015255087 1.4942862
-0.07113976 0.015192935 1.487841
-0.066955216 0.012496078 1.2207248
-0.090429373 0.014987204 1.4667681
-0.099051103 0.014762932 1.4441683
-0.1117646 0.015133754 1.4803537
-0.12294345 0.015252026 1.4915162
-0.13392718 0.015329667 1.4986107
-0.14377947 0.015275953 1.4926846
-0.15406543 0.015272424 1.4916683
-0.16521192 0.015349286 1.4985347
-0.17507596 0.015304958 1.4933991
-0.18499954 0.015270488 1.4891921
-0.19590415 0.015316362 1.492853
-0.20659608 0.015341835 1.4944537
-0.21731885 0.01536706 1.4959786
-0.22822101 0.015402088 1.4984159
-0.23838747 0.015386575 1.4958361
-0.249017 0.015400999 1.496148
-0.25966191 0.015415178 1.4963851
-0.27067369 0.015449205 1.4985157
-0.28081319 0.015432767 1.4956508
-0.2922523 0.01548637 1.4995909
-0.30571944 0.015640017 1.5132505
-0.33419001 0.016525298 1.5982753
-0.34498313 0.016507469 1.5949798
-0.35639566 0.016519468 1.594541
-0.36715046 0.016501179 1.5910968
-0.38016987 0.016582744 1.5973135
-0.39187536 0.016603971 1.5975964
-0.40554482 0.016704915 1.6055549
-0.41809544 0.016755551 1.6085594
-0.42968327 0.01676595 1.607601
-0.43970352 0.016716221 1.6007704
-0.45126632 0.016726157 1.5996567
-0.46421406 0.016785689 1.603266
-0.47638682 0.016815023 1.6038952
-0.48945761 0.016873952 1.6073048
-0.50112236 0.016882828 1.6058339
-0.51309359 0.016901404 1.6052325
-0.52261513 0.016840234 1.5969322
-0.53740138 0.016947702 1.6047115
-0.54910731 0.016955571 1.6028937
-0.60768712 0.018380927 1.7360836
-0.69852901 0.020705488 1.9543025
-0.71743822 0.020848433 1.9645202
-0.72958112 0.020793032 1.9558135
-0.75436789 0.02109327 1.9807061
-0.76981562 0.02112608 1.9801596
-0.77577192 0.020901961 1.9553015
-0.79894209 0.021141369 1.9740676
-0.81520861 0.021192888 1.9750236
-0.82998854 0.021204652 1.9721575
-0.85064644 0.021363638 1.9829813
-0.85836393 0.021197747 1.9633397
-0.87677097 0.021296958 1.9683793
-0.88667148 0.021189675 1.9541086
-0.91392589 0.02149393 1.9779707
-0.93647844 0.021679819 1.9906744
-0.95152748 0.021688949 1.9869019
-0.9648326 0.021658657 1.9794145
-0.98691642 0.021823389 1.9897796
-0.99665678 0.021714339 1.9748966
-1.0221301 0.021946259 1.9911572
-1.0400593 0.02201188 1.9920641
-1.0519954 0.021950603 1.9813154
-1.0784758 0.02219029 1.9978195
-1.0808477 0.021934154 1.9692628
-1.0993491 0.022007843 1.9705122
-1.1086079 0.021897012 1.955039
-1.14749 0.022366503 1.9916152
-1.1583028 0.022283785 1.978459
-1.1634027 0.022094693 1.9557738
-1.1790479 0.02210813 1.9511213
-1.2180939 0.022554519 1.9847757
-1.2261046 0.022422321 1.9669535
-1.2552065 0.022674346 1.982985
-1.2593198 0.022474337 1.9590805
-1.271863 0.022427751 1.9486421
-1.2925657 0.022524446 1.9506558
-1.3033683 0.02244838 1.937503
-1.3499479 0.022983169 1.9772767
1.3747349 0.0074926405 1.9798386
1.3833513 0.007626195 2.0224054
1.3480846 0.0075181215 2.0003474
1.3401508 0.0075617302 2.018816
1.3162428 0.0075151715 2.0129423
1.3145643 0.0075959414 2.0413802
1.2827278 0.0075022932 2.022495
1.2775623 0.0075642499 2.0457654
1.2361953 0.0074107335 2.0101607
1.2288642 0.0074599534 2.0297976
1.208089 0.0074277739 2.0270483
1.2050254 0.0075050713 2.054354
1.1668459 0.0073628174 2.0209758
1.1635722 0.0074399645 2.048142
1.1536773 0.007476287 2.0639887
1.1287721 0.0074149994 2.0525832
1.1059772 0.0073660659 2.0444553
1.0880237 0.0073484536 2.0449519
1.071504 0.0073401625 2.0479593
1.0581833 0.0073538609 2.0570681
1.035373 0.0073010451 2.0473201
1.0291229 0.0073651727 2.0705357
1.0051574 0.0073025357 2.0577672
0.98185176 0.0072428435 2.0456686
0.9646998 0.0072273887 2.0460262
0.9442535 0.0071863728 2.0389743
0.92230964 0.0071324534 2.0280917
0.9058314 0.0071197287 2.0288885
0.90015912 0.0071929265 2.0543127
0.87534362 0.0071130451 2.0356054
0.86628085 0.007160624 2.0535505
0.84638083 0.0071187201 2.0455644
0.82364714 0.0070510632 2.0299804
0.80778062 0.0070408056 2.0309238
0.79843831 0.0070880856 2.048532
0.78393477 0.0070904666 2.053015
0.75201154 0.0069323569 2.01052
0.75076914 0.0070564216 2.0503929
0.72991675 0.0069974484 2.0366373
0.71455014 0.0069897333 2.0378036
0.70500481 0.0070398259 2.0558951
0.69082797 0.0070448164 2.0606663
0.66765374 0.0069562793 2.0377614
0.65602899 0.0069868178 2.0499003
0.6347931 0.0069140596 2.0314119
0.62311304 0.0069444189 2.0433576
0.6110183 0.006971491 2.0542791
0.58967817 0.0068918262 2.0334184
0.57459396 0.0068831253 2.033546
0.56138122 0.0068969722 2.0403149
0.54476559 0.0068686404 2.0344353
0.53151101 0.0068823001 2.0410106
0.51039732 0.0067921337 2.0164647
0.49699196 0.0068023279 2.0218439
0.48284686 0.0068026991 2.024215
0.46600887 0.0067640054 2.0147917
0.4501912 0.0067381705 2.0091391
0.434894 0.0067187133 2.0053208
0.41192895 0.0065755616 1.9641845
0.37634489 0.0062141963 1.8571453
0.34300333 0.0058654309 1.7536446
0.32817167 0.0058191125 1.7411983
0.31458774 0.0057922159 1.7345384
0.3021315 0.0057847644 1.7336878
0.2897017 0.0057772198 1.7327484
0.28090417 0.0058445968 1.7544369
0.2781246 0.0060489653 1.8176099
0.27148721 0.0061848443 1.8600417
0.26865175 0.0064251944 1.9341662
0.2597568 0.0065382309 1.9696661
0.24805303 0.0065891645 1.9862779
0.23288059 0.0065485286 1.9750119
0.2189676 0.0065404549 1.9735723
0.20446903 0.0065126577 1.9660677
0.19257516 0.0065697692 1.984338
0.17661147 0.0064861546 1.9597088
0.15079187 0.0059967325 1.8113772
0.11711925 0.0050783735 1.5321662
0.10470369 0.0049908729 1.5059931
0.094196938 0.0049850955 1.504676
0.083877996 0.0049890573 1.5062819
0.073300257 0.0049765701 1.5028235
0.062690698 0.004957451 1.4972932
0.052574981 0.0049775452 1.5036824
0.042208273 0.0049779122 1.5040057
0.031797625 0.0049716486 1.5022588
0.02146923 0.0049784058 1.5044401
0.011090598 0.004975257 1.5035514
0.0007241171 0.0049654762 1.5005915
-0.0096395314 0.0049752677 1.5035611
-0.019964639 0.0049653277 1.5004604
-0.030207854 0.0049487567 1.4952899
-0.040435016 0.0049386579 1.4920497
-0.050921995 0.0049579525 1.4977351
-0.06108382 0.0049444204 1.4933558
-0.068399236 0.0047376384 1.4299746
-0.080260992 0.0048581986 1.4664199
-0.090309016 0.0048542661 1.4648398
-0.09979742 0.004824074 1.4552099
-0.11176637 0.0049083428 1.4804221
-0.12327063 0.0049597882 1.4955717
-0.13357683 0.0049587986 1.4946955
-0.14387661 0.0049577313 1.493749
-0.15325429 0.0049271611 1.483779
-0.16445515 0.0049553649 1.4916455
-0.17461766 0.0049507972 1.4894949
-0.18585667 0.0049755583 1.496209
-0.1965512 0.0049838969 1.4978807
-0.20673488 0.004979094 1.4955138
-0.21860312 0.0050133849 1.5049564
-0.22762828 0.0049823192 1.4945302
-0.23807955 0.0049838158 1.4939302
-0.24820812 0.004978714 1.491284
-0.25932735 0.0049930965 1.4944834
-0.27120581 0.0050204243 1.5015388
-0.28154835 0.0050183455 1.4996532
-0.29206738 0.0050194492 1.498679
-0.30493969 0.0050595212 1.5093986
-0.33378956 0.0053531565 1.5963916
-0.34645459 0.0053766319 1.6018989
-0.35683337 0.0053642686 1.5965686
-0.36871558 0.0053745694 1.5979955
-0.38246995 0.0054107495 1.6071216
-0.39188129 0.0053851763 1.5976716
-0.40409476 0.0053984607 1.59981
-0.41560853 0.0054019322 1.5989511
-0.42789823 0.0054150391 1.6009098
-0.43787241 0.0053989231 1.5940912
-0.45234939 0.0054377425 1.6035846
-0.46504793 0.0054538087 1.6062256
-0.47582942 0.0054471632 1.6020526
-0.48744354 0.005450136 1.6006795
-0.49906263 0.0054530292 1.5992227
-0.51279926 0.0054784152 1.6043555
-0.5238561 0.0054746903 1.6008134
-0.53772402 0.0054998752 1.6057373
-0.55168581 0.0055249492 1.6105461
-0.60605711 0.0059454162 1.731443
-0.69586539 0.0066897147 1.9468565
-0.71336055 0.0067232517 1.9533324
-0.73236847 0.0067694793 1.9634105
-0.75225782 0.0068219537 1.9751893
-0.77126646 0.0068646432 1.9839875
-0.78310871 0.0068431552 1.9740064
-0.78889209 0.0067704376 1.9491081
-0.81218833 0.0068479334 1.9677167
-0.83231241 0.0068964688 1.9777905
-0.83773422 0.0068236035 1.9527147
-0.86912078 0.0069611315 1.988206
-0.87799603 0.0069168014 1.9712198
-0.89325207 0.0069233603 1.9687946
-0.9006027 0.0068694106 1.9489797
-0.92253298 0.0069266162 1.9608704
-0.95239949 0.0070407297 1.9888073
-0.96832955 0.0070499172 1.986715
-0.97589087 0.0069988132 1.9674484
-0.99398452 0.0070236349 1.9696304
-1.0076203 0.0070166946 1.9627434
-1.0391541 0.0071328059 1.990389
-1.0538746 0.0071318625 1.9849545
-1.0737692 0.0071654725 1.9891061
-1.0889934 0.0071674227 1.9842927
-1.0998489 0.007140955 1.9714876
-1.1081333 0.0070987227 1.9542673
-1.1465138 0.0072478605 1.9899813
-1.1598263 0.0072367094 1.9811552
-1.1766343 0.0072473753 1.978266
-1.1991186 0.0072922911 1.9846715
-1.2160308 0.0073026204 1.9814626
-1.2319081 0.0073065558 1.9764112
-1.2451189 0.0072947731 1.9669993
-1.2571868 0.0072766603 1.9558108
-1.2762297 0.0072988691 1.95546
-1.298627 0.0073395134 1.9599507
-1.2906199 0.0072093727 1.9184754
-1.3286552 0.0073364601 1.9459215
1.3753017 -0.008120277 1.9806597
1.3754876 -0.0082146479 2.0108199
1.3725442 -0.0082923071 2.0369194
1.3594055 -0.0083094724 2.0480411
1.323319 -0.0081851063 2.0238452
1.3194108 -0.0082591744 2.0489612
1.2805967 -0.0081138834 2.0191078
1.2628106 -0.0080998857 2.0219641
1.2580743 -0.0081702871 2.0460091
1.2201084 -0.0080239363 2.0152235
1.2121613 -0.0080737835 2.0339317
1.182887 -0.0079810265 2.0163274
1.1807661 -0.0080714449 2.0452678
1.1670101 -0.0080836779 2.0542371
1.1478553 -0.0080583412 2.0534935
1.1345211 -0.0080737313 2.0631142
1.1040848 -0.0079661552 2.0409291
1.0852215 -0.0079402272 2.0396445
1.0728862 -0.0079620043 2.0506194
1.060002 -0.0079802778 2.0606282
1.0380642 -0.0079299295 2.0526803
1.0140797 -0.0078622093 2.0400429
1.0064658 -0.0079212831 2.0604644
0.98400187 -0.0078635011 2.0501804
0.96681875 -0.0078467745 2.0505528
0.94508862 -0.0077920286 2.0407898
0.9260118 -0.0077577471 2.0362928
0.91960502 -0.0078302259 2.0599711
0.89098579 -0.0077128345 2.0332193
0.88201648 -0.0077644479 2.0512388
0.87207383 -0.007809123 2.0673842
0.85207886 -0.0077637718 2.0594375
0.82775575 -0.0076766633 2.0401819
0.81952995 -0.0077383895 2.0606866
0.7977165 -0.007671725 2.0466647
0.77932727 -0.0076361005 2.0408566
0.76697493 -0.0076593943 2.0508301
0.74325442 -0.0075678495 2.0297143
0.73896509 -0.0076744482 2.0620739
0.71915138 -0.0076208799 2.0510237
0.6985603 -0.0075566722 2.0369596
0.68830192 -0.0076038865 2.0530736
0.67012739 -0.0075637996 2.0453672
0.6563316 -0.0075724535 2.0508518
0.63864374 -0.0075355759 2.0438266
0.62050563 -0.0074915509 2.0347416
0.60988557 -0.0075383564 2.050441
0.5869121 -0.0074310335 2.0238066
0.57702392 -0.0074881637 2.0422096
0.56612289 -0.0075347386 2.0576773
0.54759067 -0.0074795256 2.0450642
0.52925867 -0.0074241413 2.0322952
0.5140515 -0.0074107358 2.0310104
0.49699175 -0.0073690969 2.0218418
0.47985196 -0.0073237922 2.0115626
0.45795485 -0.0072009424 1.9797027
0.44584978 -0.0072292029 1.9896139
0.43257946 -0.0072397818 1.9945649
0.3950198 -0.0068310318 1.8829238
0.35920236 -0.0064253234 1.7718496
0.3384349 -0.0062695104 1.7300818
0.32762063 -0.0062933783 1.7382479
0.31547233 -0.0062924689 1.7394578
0.30281231 -0.006280873 1.7376276
0.29149997 -0.0062974286 1.7435987
0.27792573 -0.0062644365 1.7356702
0.26777366 -0.0063090846 1.7493896
0.26546997 -0.0065516662 1.8184735
0.25745785 -0.0066705192 1.8529328
0.25521553 -0.0069591673 1.9349604
0.24608524 -0.0070815491 1.9703977
0.23195085 -0.0070658326 1.9670643
0.22017123 -0.0071243555 1.9845043
0.20672716 -0.0071332115 1.9879495
0.19209582 -0.0070994492 1.9793594
0.17580983 -0.0069946898 1.9507426
0.15079184 -0.0064963801 1.8113755
0.11742105 -0.005515682 1.5361533
0.10470366 -0.0054067126 1.5059918
0.094196901 -0.0054004532 1.5046746
0.083822928 -0.0054011992 1.5052818
0.073300228 -0.0053912173 1.5028218
0.063187569 -0.0054130726 1.5092816
0.052609548 -0.0053958213 1.5046803
0.04218049 -0.0053891237 1.5030047
0.031818565 -0.0053894343 1.5032572
0.021469222 -0.0053932066 1.5044386
0.011090594 -0.0053897952 1.5035499
0.00072459446 -0.0053827483 1.5015903
-0.0096204923 -0.0053791627 1.5005599
-0.019938294 -0.0053719422 1.4984592
-0.030287813 -0.0053752786 1.4992875
-0.040622696 -0.0053749811 1.4990457
-0.050652906 -0.0053426679 1.4897383
-0.060921989 -0.0053422004 1.4893577
-0.069864571 -0.0052423324 1.4609385
-0.080477305 -0.0052771694 1.4704127
-0.090065405 -0.0052445391 1.4608458
-0.099594265 -0.0052153799 1.4522153
-0.11176634 -0.0053173061 1.4804207
-0.12302665 -0.005362404 1.4925802
-0.13357678 -0.0053719659 1.4946941
-0.14378166 -0.0053672665 1.4927521
-0.1541695 -0.0053695692 1.4927309
-0.16434661 -0.0053647049 1.4906499
-0.17507865 -0.0053774579 1.493467
-0.18597865 -0.0053936606 1.4972001
-0.19603595 -0.0053850021 1.4939126
-0.20687035 -0.0053974893 1.4965031
-0.21746448 -0.0054028127 1.4970363
-0.22807541 -0.00540805 1.4974953
-0.23854692 -0.0054096677 1.4968919
-0.24934585 -0.0054182652 1.4981894
-0.25966582 -0.0054161833 1.4964533
-0.27050176 -0.0054246085 1.4975996
-0.28191367 -0.0054435302 1.5016181
-0.29225668 -0.0054411958 1.4996594
-0.3049396 -0.0054810806 1.5093973
-0.33338386 -0.0057921349 1.5944315
-0.34582612 -0.0058140494 1.5989642
-0.35640094 -0.0058041788 1.5946141
-0.36893821 -0.0058258963 1.5989686
-0.38086379 -0.005836959 1.6003069
-0.39211726 -0.0058373832 1.5986418
-0.40336657 -0.0058377227 1.5968982
-0.4143618 -0.0058344677 1.5941073
-0.42789808 -0.0058662198 1.6009084
-0.43944734 -0.0058697998 1.5998793
-0.45342562 -0.0059048329 1.6074355
-0.46449643 -0.0059012156 1.6043016
-0.47526485 -0.0058940207 1.6001322
-0.48888719 -0.0059217303 1.6054649
-0.49876726 -0.0059038806 1.5982659
-0.51189369 -0.0059243971 1.601494
-0.52416432 -0.005934332 1.601763
-0.53898329 -0.0059720785 1.6095326
-0.55554134 -0.0060271192 1.6219083
-0.60343468 -0.0064129205 1.7238833
-0.70789737 -0.0073724114 1.9807841
-0.71676701 -0.0073182154 1.9627323
-0.73861587 -0.0073960721 1.9802893
-0.75084347 -0.0073764669 1.9714454
-0.76442802 -0.0073706713 1.9662586
-0.77578282 -0.0073439786 1.9553945
-0.79746276 -0.0074142362 1.9704496
-0.81408298 -0.0074358108 1.9723417
-0.82845885 -0.0074364948 1.9685607
-0.85222495 -0.007520013 1.9867567
-0.8715083 -0.0075618499 1.9937083
-0.88567632 -0.0075586578 1.9885963
-0.89899898 -0.0075484705 1.9815588
-0.9197731 -0.0076001789 1.9907924
-0.91407311 -0.007434933 1.9427462
-0.92922229 -0.0074417493 1.9400324
-0.98139119 -0.0077403374 2.0137198
-0.97279954 -0.0075579393 1.9611658
-0.99174541 -0.0075917062 1.9651575
-1.0185132 -0.0076835025 1.9841268
-1.0382336 -0.0077202693 1.9886109
-1.0408232 -0.0076304101 1.9601803
-1.0695192 -0.0077317776 1.9811704
-1.0837324 -0.0077271019 1.9746302
-1.1119561 -0.0078210989 1.9933578
-1.1159782 -0.0077446322 1.96821
-1.123186 -0.0076919976 1.9491771
-1.1578166 -0.0078260908 1.9776943
-1.1776503 -0.00785801 1.9799864
-1.1878059 -0.0078253578 1.9658006
