# .PCD v0.7 - Point Cloud Data file format
VERSION 0.7
FIELDS x y z
SIZE 4 4 4
TYPE F F F
COUNT 1 1 1
WIDTH 1497
HEIGHT 1
VIEWPOINT 0 0 0 1 0 0 0
POINTS 1497
DATA ascii
-1.3162147 0.85916227 1.9645504
-1.3232279 0.85332483 1.9444723
-1.3406577 0.8542639 1.9399185
-1.3591644 0.8558591 1.9367683
-1.3728044 0.85438824 1.9265468
-1.3973414 0.8596552 1.9315325
1.4390808 0.85753345 1.9598931
1.4554888 0.87727171 2.012718
1.3976942 0.85222495 1.9618841
1.415079 0.8729676 2.0171733
1.3725413 0.85679758 1.9864749
1.3579575 0.85789824 1.9959272
1.3521791 0.86465657 2.0186262
1.3249786 0.85771406 2.0090129
1.3133016 0.86077273 2.022893
1.272223 0.84439433 1.9905633
1.2705954 0.85411626 2.0201054
1.2375442 0.84269267 1.9991604
1.2136353 0.83727604 1.9923698
1.2062576 0.84327155 2.0128679
1.1953194 0.84690654 2.0276756
1.1776574 0.84581172 2.031009
1.147494 0.83558327 2.0120819
1.1277387 0.8327527 2.0109327
1.1112251 0.83226913 2.0153897
1.097829 0.83414024 2.0255191
1.0667582 0.82243973 2.0022957
1.0521313 0.82325715 2.0096295
1.0276214 0.81624907 1.9975928
1.0206288 0.82315361 2.0197847
1.0034003 0.82188928 2.021733
0.99643487 0.82912481 2.0447032
0.95693237 0.80908352 1.999741
0.94077152 0.80844432 2.0028985
0.93282872 0.81496346 2.0238798
0.90962869 0.80814821 2.0114121
0.88855398 0.80301911 2.0030253
0.86727917 0.79752612 1.9935848
0.86266744 0.80743331 2.0228817
0.8612808 0.82077396 2.0608885
0.83463848 0.81009483 2.0380669
0.80663639 0.79766876 2.0106175
0.79681402 0.80308825 2.028379
0.77673709 0.79818225 2.0197866
0.76044208 0.79704422 2.0206928
0.74675471 0.79864872 2.028528
0.72131234 0.78748643 2.0035675
0.7080301 0.78940767 2.0120304
0.68921113 0.78510535 2.0044205
0.6568929 0.76489335 1.9556975
0.65173095 0.7761026 1.9878312
0.64273757 0.78316391 2.009258
0.62181884 0.77568477 1.9930161
0.61661845 0.7879265 2.0277784
0.59798867 0.78319061 2.0184684
0.58107561 0.78051835 2.0144136
0.56551242 0.77956635 2.0147431
0.54531795 0.77200663 1.9977592
0.53542405 0.77901465 2.0186861
0.51109558 0.76482183 1.9841574
0.50038224 0.77076793 2.0021787
0.4857128 0.77079552 2.004653
0.47061014 0.77011609 2.005198
0.45408365 0.76698786 1.9992334
0.4396641 0.76732868 2.0022995
0.4211722 0.76034117 1.9860045
0.41095516 0.7683267 2.009052
0.39575443 0.76724029 2.0081418
0.37486991 0.7546289 1.9767287
0.36312589 0.7601456 1.9930829
0.34668472 0.7558794 1.98352
0.33623424 0.764871 2.0089564
0.31912112 0.75883454 1.9945539
0.30349493 0.75592864 1.9883543
0.29038107 0.75930238 1.9987305
0.27802476 0.76511496 2.0155222
0.26339689 0.7649734 2.0164483
0.24456002 0.75187528 1.9828678
0.23532565 0.76850605 2.0282331
0.21721426 0.75643033 1.9971985
0.20303167 0.75729233 2.0005007
0.18924965 0.75989461 2.0083699
0.17488278 0.76038533 2.0105495
0.15953432 0.75631094 2.0004928
0.14507826 0.75607818 2.0006018
0.1314164 0.76038963 2.0127614
0.11613366 0.7552287 1.9995857
0.10284022 0.76337427 2.0218453
0.088262208 0.76309752 2.0215635
0.073829129 0.76421177 2.0249259
0.059108026 0.76215971 2.0197644
0.044074778 0.75343502 1.9967119
0.029899074 0.75802141 2.0091379
0.015190927 0.74506605 1.9746429
0.0010185804 0.76365525 2.0243337
-0.013371144 0.75453436 1.9999419
-0.027412873 0.74540251 1.975454
-0.042260882 0.75694549 2.0061162
-0.056707781 0.75725794 2.0067139
-0.071297243 0.75896126 2.0109563
-0.085989952 0.76100379 2.0160329
-0.099740744 0.75532377 2.0004282
-0.11306174 0.74823201 1.9809945
-0.1279593 0.75199372 1.9904534
-0.14346202 0.75819594 2.0063453
-0.15832287 0.76018155 2.0109165
-0.17222165 0.75760204 2.0032501
-0.18696868 0.75886434 2.0057521
-0.20120315 0.7580145 2.0025587
-0.21540216 0.75715369 1.9992682
-0.23211466 0.76468164 2.0182197
-0.24606182 0.762748 2.0119309
-0.25933421 0.7590552 2.0009038
-0.27485925 0.76199752 2.0074329
-0.28823456 0.75898397 1.9980806
-0.30246702 0.75840753 1.9951299
-0.31754917 0.75991696 1.997636
-0.3323783 0.76071578 1.9981841
-0.34818777 0.76359785 2.0041676
-0.35979009 0.75739205 1.9860514
-0.3771863 0.76339144 2.0001171
-0.39677185 0.77321154 2.0241601
-0.41096985 0.77220547 2.0195515
-0.42070547 0.76317394 1.9937474
-0.43744516 0.76702714 2.0018046
-0.4537077 0.76982158 2.0069859
-0.47112715 0.77434242 2.0166085
-0.48019665 0.7652815 1.9905299
-0.49678695 0.76838726 1.9962867
-0.51302361 0.77078384 2.0000958
-0.53148246 0.77629286 2.0119433
-0.54183352 0.76998174 1.9928502
-0.55495006 0.76782972 1.9845592
-0.57209384 0.77121723 1.9906179
-0.58276302 0.76592553 1.9740335
-0.60214114 0.7720589 1.9870466
-0.61648339 0.77159673 1.9828562
-0.63730806 0.77908057 1.9991411
-0.65463841 0.7820493 2.0036325
-0.65905333 0.76980007 1.9687977
-0.68204331 0.77930844 1.9899787
-0.7035228 0.7867223 2.0056205
-0.71140832 0.77894241 1.9821552
-0.72927713 0.78218824 1.9869078
-0.74692655 0.78507316 1.990631
-0.75932759 0.78243703 1.9801675
-0.78250748 0.79079515 1.9976388
-0.80043662 0.79363155 2.000921
-0.81140131 0.78958553 1.9866444
-0.8268733 0.78999293 1.9835998
-0.8354066 0.78387523 1.9639951
-0.86376566 0.79624844 1.9909703
-0.87556237 0.7931903 1.9789327
-0.89913553 0.80072349 1.993421
-0.90853286 0.79559165 1.9760424
-0.93437272 0.80479044 1.9944316
-0.95328516 0.80782187 1.9972678
-0.96575427 0.8053835 1.9863924
-0.96236336 0.79000205 1.9433738
-0.99206311 0.80184001 1.9677862
-1.0166203 0.80922538 1.980987
-1.0336317 0.81047356 1.9789124
-1.037503 0.8015334 1.951737
-1.0739602 0.81766188 1.985958
-1.0897777 0.81783974 1.9809495
-1.1064953 0.81867856 1.9774667
-1.1037841 0.80531895 1.9394267
-1.1324564 0.81490904 1.9570404
-1.1282188 0.80087823 1.9174335
-1.1753656 0.82321084 1.9654471
-1.1843573 0.81858385 1.9483829
-1.202517 0.82033139 1.9465526
-1.2182231 0.8203817 1.9405707
-1.2485176 0.83013064 1.9575601
-1.2765746 0.83816636 1.9702632
-1.2847825 0.83313221 1.951901
-1.3125917 0.84077656 1.963377
-1.3300985 0.84171677 1.9589289
-1.3289732 0.83098441 1.9271011
-1.3344496 0.82458407 1.9054605
-1.3924191 0.85039169 1.9586123
-1.4078329 0.84991449 1.950464
1.4302392 0.83602494 1.9519997
1.4318922 0.84660399 1.9841368
1.3895561 0.83111817 1.9545939
1.3994961 0.84690326 1.9990951
1.4093938 0.86303788 2.0446136
1.3585111 0.84189427 2.0010302
1.3464627 0.8445949 2.0143247
1.3327422 0.84630036 2.0251818
1.3051424 0.83912504 2.0145011
1.2914047 0.84079319 2.0250878
1.2641023 0.83355951 2.0139465
1.2242016 0.81772286 1.9816029
1.2121429 0.82031184 1.9940759
1.1937068 0.8185963 1.9959301
1.2029073 0.83604258 2.0448987
1.1757482 0.82834989 2.0319049
1.1511627 0.82228208 2.0227456
1.1272322 0.81651789 2.014173
1.1084619 0.81438011 2.0144775
1.0901946 0.81255573 2.0154533
1.0820956 0.81836772 2.0354595
1.0577085 0.81185091 2.0244823
1.0314001 0.80363977 2.0090697
1.0159205 0.80374348 2.0144684
0.98960918 0.7951473 1.9977602
0.98080277 0.80056649 2.0164354
0.96411413 0.79962301 2.0189078
0.94386774 0.79564953 2.0135608
0.92101341 0.78930879 2.0020347
0.90916014 0.79234076 2.014365
0.88770878 0.78696835 2.0050712
0.88060325 0.7943483 2.0284488
0.85782045 0.78759772 2.0153918
0.84860206 0.79328203 2.0343108
0.82110918 0.78177738 2.0087059
0.80932868 0.78508097 2.021318
0.79843694 0.78938991 2.0364974
0.77799076 0.78423667 2.0269973
0.76956022 0.79123145 2.0490637
0.74247956 0.77894551 2.0207183
0.71395284 0.76459944 1.9867841
0.69245809 0.75733471 1.9712157
0.6906386 0.77174032 2.0124471
0.67698318 0.77326602 2.0198283
0.65251112 0.76222539 1.994017
0.63895887 0.76372427 2.0011461
0.62672913 0.7669127 2.0126791
0.60840231 0.76261401 2.0043318
0.60002732 0.77088612 2.0292168
0.57453793 0.75703144 1.9953178
0.56493074 0.76392531 2.016427
0.54990023 0.76365978 2.0184426
0.5367831 0.7661103 2.0276241
0.52217072 0.76650566 2.0312595
0.49511296 0.74811912 1.9846109
0.48300862 0.75189865 1.9970998
0.47139129 0.75669557 2.0122652
0.45607716 0.75567603 2.0117824
0.44139484 0.75567037 2.0139432
0.42400217 0.75086457 2.0031266
0.41052011 0.75288838 2.0105894
0.39515436 0.75147945 2.0087438
0.38295919 0.75622326 2.0234067
0.36707225 0.75376475 2.0185854
0.34662756 0.74135399 1.986802
0.33572155 0.74915254 2.0095165
0.32201055 0.7511149 2.0164061
0.30414724 0.74311823 1.9962724
0.28993329 0.74368536 1.9992362
0.27823672 0.75110799 2.0207155
0.26335669 0.75028253 2.0197768
0.24656889 0.74360681 2.0028861
0.23260979 0.74516195 2.0082569
0.21818495 0.7453326 2.0098002
0.20196569 0.73896194 1.9934915
0.18904528 0.74460995 2.0097852
0.17267872 0.73649567 1.9885758
0.15832533 0.73627722 1.988773
0.1456603 0.74464673 2.0122857
0.13000187 0.73787189 1.9944929
0.11606084 0.74037337 2.0018954
0.10088711 0.7346068 1.9866987
0.087396666 0.74121618 2.0051634
0.073784068 0.7491923 2.0272934
0.058690801 0.74235958 2.0089781
0.044108585 0.73964518 2.001821
0.029866656 0.74277115 2.0105231
0.015424361 0.74209988 2.0088003
0.00098566408 0.72489589 1.9619116
-0.013281913 0.73521733 1.9900361
-0.027382286 0.7303831 1.9767532
-0.041294251 0.72553837 1.9633756
-0.055201124 0.72309244 1.9564751
-0.071714453 0.74885589 2.0264249
-0.085540578 0.74260169 2.0089984
-0.10018774 0.74425173 2.0130529
-0.1142083 0.74141777 2.004818
-0.12817666 0.73891759 1.9974276
-0.14410263 0.74706978 2.018981
-0.15705675 0.73973304 1.9982854
-0.17219406 0.74304694 2.0065179
-0.18503937 0.73672295 1.9884585
-0.2006129 0.74138927 2.0002253
-0.21586573 0.74432462 2.0072072
-0.23005939 0.74346876 2.0038137
-0.24466816 0.74397618 2.0040536
-0.25989079 0.74618959 2.0088499
-0.27330142 0.74324125 1.9995745
-0.28885275 0.74611837 2.0060222
-0.30311576 0.74555188 2.0030653
-0.31837517 0.74737591 2.0065072
-0.33339459 0.74850208 2.0079839
-0.33745867 0.72596622 1.9454721
-0.35060537 0.72399378 1.9384879
-0.37315953 0.74085045 1.982214
-0.39152047 0.74843943 2.0008209
-0.40608218 0.74848235 1.9990083
-0.42621467 0.75843519 2.0237679
-0.43956542 0.75605851 2.0152843
-0.45425612 0.75606549 2.0131364
-0.47127131 0.75981987 2.0209582
-0.47793797 0.74716812 1.9847645
-0.49401245 0.74953616 1.9887367
-0.50762361 0.74813813 1.982563
-0.53378689 0.76480246 2.0245016
-0.54419738 0.75860506 2.005353
-0.55637175 0.75512832 1.9934107
-0.57020754 0.75402743 1.9877304
-0.59190989 0.76312357 2.0090344
-0.60070157 0.75553674 1.9860009
-0.6144557 0.75440443 1.9800241
-0.62277693 0.74681002 1.9569144
-0.64875835 0.76025683 1.9892749
-0.6699093 0.76757026 2.0052996
-0.68678945 0.76977837 2.0077667
-0.69818395 0.76587498 1.9941009
-0.70753032 0.75993454 1.9750583
-0.72725284 0.76515377 1.9851717
-0.74486482 0.76798803 1.9889342
-0.77125967 0.7795887 2.0154283
-0.78513825 0.77833462 2.0083067
-0.78612727 0.76459163 1.9687099
-0.81342381 0.7764706 1.9955329
-0.8382749 0.78562522 2.0151117
-0.85358238 0.78566825 2.0110126
-0.85883969 0.77662158 1.983438
-0.87319857 0.77597553 1.9774588
-0.8955878 0.78236657 1.9894403
-0.90921932 0.78102142 1.9814893
-0.92238957 0.77933067 1.9725932
-0.93991244 0.78131264 1.9729841
-0.96321571 0.78796041 1.9851171
-0.9913106 0.79825854 2.0063341
-1.0016594 0.79416949 1.9909931
-1.0233741 0.79907942 1.9983011
-1.0218582 0.78597438 1.9601836
-1.062892 0.80550104 2.0039637
-1.0725565 0.80103308 1.9874102
-1.0883578 0.8012107 1.9824191
-1.0995739 0.79805535 1.9690573
-1.1370561 0.81378633 2.00249
-1.1492808 0.81125706 1.9904703
-1.1651933 0.81136429 1.9849054
-1.1786832 0.80980396 1.9751589
-1.1945282 0.80988169 1.9693694
-1.2113379 0.8106029 1.9650706
-1.2181805 0.8047213 1.9445989
-1.2384056 0.8077172 1.9456918
-1.2490203 0.80444849 1.9314982
-1.2873458 0.81888747 1.9599936
-1.3110257 0.82377166 1.9652081
-1.3290489 0.82502645 1.961568
-1.3428239 0.82364559 1.9515345
-1.3360583 0.80984676 1.9118927
-1.406599 0.84268272 1.9829968
-1.4100698 0.83504426 1.9578283
1.4514098 0.83191973 1.9853455
1.4060282 0.81516373 1.9521611
1.3955592 0.81849462 1.9672651
1.3736085 0.8150906 1.9659762
1.3661678 0.82031828 1.9856063
1.355343 0.82361525 2.0005188
1.3370547 0.82240194 2.0043285
1.3260195 0.82567501 2.0190921
1.3005265 0.81991476 2.0114961
1.2777405 0.81573737 2.0076513
1.2725667 0.82284063 2.0317242
1.2394584 0.81183165 2.0106239
1.2238026 0.8121146 2.017539
1.2167907 0.81821769 2.0389893
1.191915 0.81231099 2.0302045
1.1629999 0.80345207 2.013793
1.1390306 0.79781133 2.0053217
1.1248729 0.79898113 2.0139859
1.1129142 0.80176842 2.0267041
1.0861021 0.79378086 2.0118601
1.0859886 0.80535787 2.0469251
1.0472063 0.78817612 2.0082252
1.038594 0.79352552 2.0272121
1.0251216 0.79526883 2.0368812
1.0024127 0.78978926 2.0278041
0.99875134 0.7993812 2.0576608
0.95877159 0.7797454 2.0115757
0.9445672 0.78077221 2.019007
0.9275685 0.77948493 2.0203261
0.91137409 0.7788415 2.0232341
0.89253557 0.7758773 2.0199652
0.87789714 0.77652448 2.0260756
0.86322075 0.77716053 2.0320833
0.83985627 0.76985556 2.0170527
0.8238396 0.76914048 2.0192959
0.80609816 0.76675791 2.0170314
0.79048491 0.76634693 2.0198989
0.77420497 0.76526082 2.0208869
0.75992888 0.76615167 2.0270545
0.74657536 0.76802784 2.0357838
0.71574366 0.75162774 1.9955536
0.71559185 0.76743317 2.0414071
0.6944862 0.76096523 2.0275304
0.66886485 0.74915248 1.9991449
0.66549367 0.76229006 2.0377812
0.64028281 0.75044066 2.0090456
0.62691343 0.7522366 2.0170014
0.61156565 0.7516883 2.0185523
0.59225553 0.74612081 2.0064216
0.57858151 0.74755049 2.01316
0.55980313 0.74228692 2.0016453
0.54760563 0.74570096 2.013629
0.53215992 0.74475837 2.0136926
0.51558059 0.74213034 2.0090773
0.49841827 0.7384842 2.0015893
0.48622027 0.74219543 2.0141222
0.47195399 0.74288243 2.018326
0.45620927 0.74121165 2.0159984
0.43812495 0.73550212 2.0025065
0.42199767 0.73279822 1.9971639
0.4097051 0.73679781 2.0101633
0.39436755 0.73541468 2.0082994
0.3815088 0.73872519 2.0192842
0.37068549 0.74639827 2.0422399
0.34961259 0.73321337 2.0076101
0.33658734 0.7364946 2.0183175
0.31092089 0.71115941 1.9498861
0.29706743 0.71172124 1.9528987
0.2807776 0.70621097 1.9390408
0.27220935 0.72056264 1.9800982
0.25848797 0.72210711 1.9856483
0.24846333 0.73476452 2.0219479
0.23203304 0.72887552 2.0067637
0.21643601 0.72499609 1.99707
0.20390354 0.73156023 2.0163002
0.18909998 0.73035723 2.0138967
0.17305058 0.72374439 1.9963833
0.1595545 0.72758019 2.0078413
0.14388463 0.72128087 1.9910446
0.12403449 0.69032657 1.9055606
0.11064307 0.69210202 1.9110612
0.098362185 0.70230895 1.9399738
0.088193409 0.73344392 2.0271149
0.072991714 0.72675002 2.0088556
0.058435515 0.72477287 2.0036609
0.044244543 0.72751313 2.0115395
0.029889168 0.72889185 2.0155573
0.015357235 0.7245177 2.0034766
0.0010102947 0.72857726 2.0148277
-0.013136357 0.71303511 1.9714895
-0.02723505 0.71234441 1.9694688
-0.040403988 0.69610673 1.9240648
-0.054874621 0.70485252 1.948204
-0.067777693 0.69399953 1.9176793
-0.084494315 0.71927017 1.9877003
-0.09975332 0.72663015 2.0077565
-0.11461253 0.72958899 2.0154829
-0.12887032 0.72848523 2.011831
-0.14394549 0.73175907 2.0202897
-0.15659033 0.72320944 1.9957927
-0.16913383 0.71566439 1.9740371
-0.18345021 0.71620774 1.9747058
-0.19592364 0.70999467 1.9565395
-0.21163939 0.71557641 1.9710647
-0.22704022 0.71945953 1.9807929
-0.24417338 0.72804916 2.0034916
-0.26044461 0.73325402 2.0167131
-0.27300081 0.72800213 2.000885
-0.28707442 0.72712076 1.9971019
-0.3025049 0.7295962 2.0025368
-0.31802818 0.73205936 2.0078578
-0.32615453 0.71802354 1.9675325
-0.33579704 0.70835924 1.9392618
-0.35468599 0.71819293 1.9647243
-0.37395549 0.72800905 1.9900216
-0.39503828 0.74049503 2.0225472
-0.40675595 0.73516077 2.0059385
-0.42306849 0.73821288 2.0123219
-0.43869832 0.73990947 2.0148964
-0.45336035 0.73991692 2.0127578
-0.46822792 0.74024886 2.0114348
-0.47588778 0.72951156 1.9797623
-0.49212718 0.73217154 1.9846829
-0.49595383 0.71674067 1.9401544
-0.51608199 0.72507161 1.9604084
-0.53040999 0.72502297 1.9577274
-0.5575363 0.74200988 2.0012741
-0.57011354 0.73925841 1.9910487
-0.58996999 0.74584752 2.0060854
-0.60303861 0.74374276 1.9974667
-0.61657095 0.74229664 1.9905692
-0.62323606 0.73284322 1.962002
-0.64401948 0.7400434 1.9783046
-0.67336535 0.75654316 2.0194836
-0.6869927 0.75504887 2.0121212
-0.69375396 0.74623263 1.9850665
-0.7118361 0.7497077 1.990909
-0.72907543 0.75217104 1.9939393
-0.74475718 0.75296098 1.9924062
-0.75912005 0.75241274 1.9872259
-0.77583563 0.75417262 1.9881049
-0.78462452 0.74830621 1.9686673
-0.80837059 0.75665766 1.9868363
-0.82810593 0.76101929 1.9943012
-0.85494405 0.77163559 2.0181236
-0.86951959 0.77100563 2.0121737
-0.86325192 0.7522347 1.9585463
-0.89009839 0.76246685 1.9809953
-0.90872031 0.76542968 1.9842552
-0.92823219 0.76903272 1.9890684
-0.95068491 0.77491647 1.9996892
-0.96597701 0.7748692 1.9947709
-0.97336131 0.76857942 1.9736172
-0.99229288 0.77146077 1.9761389
-1.0049031 0.7694146 1.965855
-1.0187204 0.76834029 1.9580137
-1.0588528 0.78685242 2.0002823
-1.0764799 0.78834629 1.9987391
-1.0864666 0.78428191 1.9829315
-1.115501 0.79388821 2.0018365
-1.1179835 0.78459346 1.9726316
-1.1337197 0.78472739 1.9673021
-1.1328014 0.77348602 1.9332327
-1.1733229 0.79046232 1.9701293
-1.1954389 0.79475516 1.9749279
-1.2122642 0.79546463 1.9706343
-1.2435566 0.80552733 1.9895293
-1.2731677 0.81425959 2.0048859
-1.2821394 0.80973852 1.987245
-1.2940199 0.80714357 1.9743438
-1.3120439 0.80839705 1.9708607
-1.3295567 0.80930936 1.9664418
-1.3529397 0.81373048 1.9704916
-1.362437 0.80979407 1.9540628
-1.3870133 0.81480783 1.9593128
-1.4001811 0.8130812 1.9481215
1.4909669 0.83766383 2.0441303
1.4909256 0.84726077 2.0752711
1.4342935 0.82454801 2.0264883
1.3951889 0.81149584 2.0012338
1.4024895 0.82544518 2.0430071
1.3653661 0.81326973 2.019567
1.3459173 0.81145364 2.021848
1.3213332 0.80645823 2.0160084
1.3096941 0.80933774 2.0299053
1.2822433 0.80239528 2.0188663
1.2560214 0.79605412 2.0091624
1.2715193 0.816333 2.0671871
1.2344825 0.80297357 2.0393679
1.2167318 0.80197001 2.0429714
1.1723086 0.78312182 2.0005395
1.1615083 0.78652579 2.0151911
1.1222143 0.77046156 1.9794055
1.1307483 0.78724396 2.0285864
1.1114696 0.7848655 2.0280399
1.093601 0.78342807 2.029834
1.0766486 0.78261459 2.0331583
1.0549272 0.7782585 2.0270913
1.0273521 0.76938677 2.009001
1.0161515 0.77269381 2.022836
1.0027267 0.77438611 2.0323622
0.99783701 0.78282827 2.0597208
0.9622975 0.76710945 2.0229051
0.93211901 0.75521952 1.9960078
0.92353934 0.7607246 2.0153196
0.90894938 0.76138175 2.0216463
0.89204353 0.76008815 2.0226691
0.87927884 0.76233959 2.0331221
0.86604685 0.76425898 2.0426259
0.85164553 0.7651974 2.049423
0.81982714 0.7502321 2.0131474
0.80076182 0.74659318 2.0073159
0.79242325 0.75300759 2.028657
0.76436228 0.74056488 1.9986998
0.76014835 0.7511912 2.0313945
0.7351684 0.74131101 2.0081401
0.72670543 0.74802136 2.0300779
0.70308292 0.73908108 2.0091305
0.69255787 0.74381959 2.0255547
0.68035042 0.74692124 2.037446
0.65433693 0.73466289 2.0070035
0.62737328 0.72074378 1.9717981
0.62542039 0.73557889 2.0158002
0.61065006 0.73569435 2.0191426
0.59268439 0.73186988 2.0114985
0.57305044 0.72573686 1.9973456
0.56020898 0.7281099 2.0066938
0.5480029 0.73145902 2.0186996
0.53780949 0.73775482 2.0388596
0.51711881 0.72959912 2.0186987
0.50194746 0.72898042 2.0194459
0.48020357 0.71849036 1.9925271
0.46164113 0.71225464 1.9773712
0.43175206 0.68757945 1.9104567
0.43204379 0.71092546 1.9779696
0.40044558 0.68159783 1.8977041
0.40178183 0.70823544 1.9744426
0.39411497 0.7203846 2.0105112
0.37779287 0.71703845 2.0029545
0.36627814 0.72291356 2.0212886
0.3495478 0.71855533 2.0107243
0.33498761 0.71847367 2.0121372
0.31748104 0.711779 1.9948021
0.2947543 0.69219005 1.9409252
0.28125194 0.69339043 1.9456985
0.26285797 0.6820249 1.9148445
0.25034937 0.68551677 1.9259573
0.24168879 0.70057195 1.9697818
0.23027076 0.70901048 1.9948276
0.21568891 0.70818108 1.9935397
0.20405397 0.71759713 2.0212586
0.18941435 0.7170791 2.0207257
0.17455091 0.71555752 2.0172715
0.15915395 0.71137667 2.006187
0.14412576 0.70817721 1.9978148
0.12418691 0.67748278 1.91118
0.11272338 0.69114673 1.9506059
0.098671608 0.69056183 1.9494444
0.085007913 0.69294769 1.9566703
0.074064054 0.72281867 2.0420673
0.057961032 0.70464689 1.9906512
0.044195089 0.71230423 2.0126953
0.029869728 0.71398795 2.0176651
0.015411602 0.71267927 2.0140464
0.0010101056 0.7140106 2.0178764
-0.013276862 0.70638543 1.9961332
-0.027293995 0.69974416 1.9771253
-0.04153255 0.70137542 1.9816067
-0.055257328 0.69570786 1.9652406
-0.06980826 0.7006312 1.978959
-0.08507292 0.70984954 2.0048289
-0.10047657 0.71739972 2.0258737
-0.11432579 0.71334678 2.0138319
-0.1293242 0.71656901 2.0224175
-0.14332102 0.71415144 2.0148947
-0.15736417 0.71238601 2.009161
-0.17157297 0.71160358 2.0061545
-0.18531515 0.70915645 1.9983541
-0.19355336 0.68751031 1.9359971
-0.2037109 0.67512494 1.8999039
-0.21837051 0.67827827 1.9078404
-0.23541622 0.68803275 1.9344079
-0.25608474 0.70669669 1.9861103
-0.27181095 0.7104705 1.9955329
-0.28888214 0.71720475 2.0132463
-0.30621958 0.72392476 2.0308228
-0.31855428 0.71874446 2.0146885
-0.33358234 0.71982789 2.0161836
-0.33955359 0.70209408 1.9645373
-0.35461339 0.70382148 1.967739
-0.36870039 0.70355934 1.9652617
-0.38707611 0.71119666 1.9849337
-0.40407783 0.71585286 1.9961179
-0.42472497 0.72642213 2.0238044
-0.43802276 0.7241351 2.0153055
-0.44998878 0.71986562 2.001193
-0.47069097 0.72940153 2.0256653
-0.48257798 0.72511268 2.0113626
-0.49023202 0.71490365 1.9804859
-0.49190974 0.69681346 1.9276284
-0.51598006 0.71056765 1.9635094
-0.5197773 0.69641441 1.9215995
-0.54034787 0.70488822 1.9425725
-0.57155782 0.72644943 1.9997131
-0.5859046 0.72603458 1.9957386
-0.60943133 0.73673743 2.022445
-0.62256062 0.73466021 2.0136907
-0.63815153 0.73551685 2.0129683
-0.64593524 0.72754103 1.9878424
-0.65725023 0.72380912 1.9743767
-0.68022043 0.73279572 1.9957753
-0.68590534 0.72317487 1.9660325
-0.7107721 0.73375762 1.9915644
-0.72541612 0.73357028 1.9875118
-0.7443099 0.73760182 1.9948825
-0.75431383 0.73283815 1.9782084
-0.77605486 0.73944151 1.99237
-0.78901124 0.73758316 1.9834536
-0.8043583 0.73798728 1.9805977
-0.82438642 0.74259311 1.9890009
-0.8522675 0.75398171 2.0155447
-0.87014884 0.75627905 2.0174437
-0.87977642 0.75144726 2.000114
-0.90959716 0.7637344 2.0285764
-0.92189002 0.76114005 2.0170734
-0.92692035 0.75273293 1.9900345
-0.95218217 0.7607618 2.0067055
-0.96627039 0.75974989 1.9992222
-0.9803037 0.75872719 1.9916421
-0.99554676 0.75865787 1.9865104
-1.0244581 0.7688486 2.0083051
-1.040289 0.76906478 2.0036945
-1.0468727 0.76253891 1.9813453
-1.071474 0.76913577 1.9932767
-1.0949482 0.77474678 2.0024667
-1.1085393 0.77330512 1.9931768
-1.1368997 0.78206319 2.0102451
-1.1514719 0.78122622 2.0023215
-1.1640884 0.77910316 1.991016
-1.1746776 0.77569801 1.9763694
-1.1919435 0.7767334 1.973062
-1.2033038 0.7739436 1.9598953
-1.2404962 0.78762668 1.9886054
-1.2529155 0.78543347 1.9767489
-1.2912797 0.79935598 2.0055926
-1.2970659 0.79301643 1.9830657
-1.3130405 0.79298478 1.9764072
-1.3279301 0.79230666 1.9680506
-1.3449017 0.79287195 1.9627286
-1.3683368 0.79718959 1.9666473
-1.3804522 0.79488856 1.9540142
-1.4089723 0.80197811 1.9645265
1.4620012 0.8047896 2.0082097
1.4297009 0.79604799 1.9934663
1.3938648 0.78511167 1.9729273
1.3805608 0.78675908 1.9840944
1.3660971 0.78777683 1.9936053
1.351567 0.78878021 2.0030172
1.3233613 0.7817297 1.9916869
1.30678 0.78145671 1.9976145
1.2881346 0.77992713 2.0002091
1.2685081 0.77775735 2.0010369
1.2604461 0.78271335 2.0202804
1.2284361 0.77273375 2.0005569
1.2060632 0.76863343 1.9959773
1.1944436 0.77136838 2.0091918
1.17936 0.77191007 2.0165927
1.1284404 0.74869031 1.9611881
1.1388366 0.76607192 2.0128472
1.1412045 0.77846628 2.0514429
1.1100048 0.7679897 2.029247
1.1109278 0.77975661 2.0661964
1.0800673 0.76923263 2.043565
1.0456784 0.75584453 2.013016
1.0426699 0.76507699 2.0430601
1.0020788 0.74659258 1.9983867
1.0113595 0.76526779 2.0538626
0.99156785 0.76218826 2.050535
0.97147566 0.75877464 2.0461771
0.94911134 0.75344557 2.0364764
0.92458737 0.74619609 2.021385
0.90843678 0.74557334 2.0242517
0.88925886 0.74240178 2.0200415
0.85039777 0.72239852 1.969466
0.85894859 0.74267578 2.0294867
0.84899986 0.74740362 2.046757
0.81863415 0.73400009 2.0138726
0.80550933 0.73584133 2.0229907
0.79127347 0.73671871 2.0293741
0.77564806 0.73631132 2.0321145
0.76068622 0.73653024 2.0365164
0.73762715 0.72875828 2.0185387
0.71169984 0.7177701 1.991413
0.6958217 0.71666533 1.9917837
0.68544906 0.72130615 2.0081863
0.66030025 0.71025866 1.9804702
0.64198989 0.70623261 1.9723396
0.64376265 0.72462541 2.0272965
0.62809032 0.72378939 2.0280483
0.60836512 0.71812862 2.0150745
0.58859402 0.71212977 2.0010207
0.5776 0.71671486 2.0168545
0.55985004 0.71293759 2.0089054
0.55134386 0.72104526 2.0346432
0.53196788 0.71499324 2.0200558
0.5179531 0.71600717 2.0254908
0.50298458 0.71572334 2.0271549
0.48780069 0.71510667 2.027792
0.46410373 0.70158249 1.9914297
0.43536839 0.67932612 1.9299034
0.41974264 0.67672515 1.9245143
0.41118628 0.68573487 1.9523575
0.38580006 0.66631949 1.8985345
0.38591802 0.69114548 1.9717352
0.3806715 0.70790005 2.0217714
0.36386588 0.70363855 2.0112896
0.34995976 0.70486289 2.0165296
0.33338091 0.70057684 2.0058062
0.32080433 0.70469385 2.0192549
0.30425486 0.70006061 2.0073674
0.28105259 0.67889535 1.947589
0.27107686 0.68913519 1.9785256
0.2549997 0.68413872 1.9653198
0.23421612 0.66519034 1.9116101
0.22947007 0.69226575 1.9911734
0.2152402 0.69242513 1.9926945
0.20335446 0.70068413 2.0176492
0.188502 0.6992026 2.0142815
0.17475829 0.70192903 2.0230613
0.16045526 0.70269847 2.026093
0.14423038 0.69436836 2.0026116
0.12919717 0.69057101 1.9922227
0.11507543 0.69130832 1.9949461
0.099358983 0.68131888 1.9664013
0.086574271 0.6914534 1.9963249
0.072453491 0.69280982 2.000649
0.05838497 0.69545555 2.0086589
0.043877531 0.69289368 2.0014446
0.030030167 0.70331562 2.0319569
0.015315262 0.6939109 2.0046861
0.0010056808 0.6965158 2.0123084
-0.013361306 0.69651121 2.0122659
-0.027585438 0.69292307 2.0017231
-0.041523509 0.68705082 1.9844656
-0.05574517 0.68766546 1.986024
-0.070783876 0.69606525 2.0101697
-0.084658056 0.69211167 1.9982969
-0.098971263 0.6923703 1.998614
-0.11409017 0.6974895 2.0129976
-0.12816224 0.69577879 2.0074484
-0.14315909 0.6989277 2.0159578
-0.15725884 0.69752133 2.0111578
-0.17097871 0.69480693 2.0024929
-0.18683408 0.70051932 2.018229
-0.19928625 0.69356763 1.9971336
-0.21444584 0.69633865 2.0041878
-0.23046185 0.70136791 2.0177109
-0.24249214 0.69438982 1.9963614
-0.25686914 0.6945352 1.9955918
-0.27213371 0.69693834 2.0012856
-0.28962326 0.7045126 2.0218544
-0.3009882 0.69717658 1.9992362
-0.31336576 0.69274837 1.984975
-0.32907763 0.69575596 1.9921187
-0.34235269 0.69357538 1.9842207
-0.35536712 0.69106287 1.975307
-0.37674552 0.70438194 2.0119011
-0.38627687 0.69538444 1.9841834
-0.40269274 0.69898117 1.9926239
-0.42406589 0.7106365 2.024101
-0.43873471 0.71065348 2.0220709
-0.45298606 0.71001506 2.0180905
-0.46805418 0.71065658 2.0177031
-0.48248464 0.71032053 2.0144446
-0.50005066 0.71448445 2.0239592
-0.50757104 0.7044673 1.9929429
-0.51801711 0.69895536 1.9747516
-0.54219782 0.71177226 2.0086482
-0.55632532 0.71106386 2.0039647
-0.57119012 0.71130997 2.0019193
-0.58790743 0.71379298 2.0061324
-0.60254878 0.71369576 2.0029531
-0.62022841 0.71711612 2.0096328
-0.63775259 0.72020137 2.0152628
-0.64465159 0.71142066 1.9873847
-0.66157252 0.71384454 1.9910015
-0.67979282 0.71753442 1.998073
-0.69474649 0.71769255 1.9951397
-0.71569693 0.72390968 2.0090725
-0.72786272 0.7211687 1.9978591
-0.73957974 0.71810186 1.9856879
-0.75853133 0.72204208 1.9929601
-0.77626288 0.72469133 1.9965302
-0.77949148 0.71395713 1.9629089
-0.81094259 0.72899127 2.0005882
-0.82569039 0.72873604 1.9958256
-0.83638525 0.7249769 1.9813366
-0.85027248 0.72406834 1.9746466
-0.8769908 0.73392916 1.9974238
-0.87866896 0.72285545 1.9627162
-0.90806895 0.73457676 1.9903041
-0.92559212 0.73646331 1.9908756
-0.94034863 0.73612309 1.9852916
-0.96245164 0.74145329 1.9950067
-0.97268581 0.7376163 1.9797755
-0.99245995 0.7410205 1.9840536
-1.0213382 0.75101596 2.0059462
-1.0518873 0.76192278 2.0300672
-1.0335381 0.73761123 1.9596525
-1.0735825 0.7550745 2.0010619
-1.0934755 0.75806785 2.003602
-1.0910105 0.74569565 1.9652047
-1.1168333 0.75273299 1.9783183
-1.1339707 0.75380367 1.9754876
-1.1720748 0.7685945 2.0086918
-1.1991495 0.77585447 2.0218124
-1.1859835 0.7572301 1.9669741
-1.2313391 0.77596939 2.0098681
-1.2434049 0.77351826 1.9972438
-1.2629347 0.77571362 1.9966301
-1.2763869 0.7741679 1.9862267
-1.3047466 0.78159052 1.9988807
-1.3114027 0.77598929 1.9778746
-1.3484709 0.78830177 2.0027454
-1.3544532 0.78236508 1.9807606
-1.3726027 0.78351325 1.9768142
-1.3836738 0.78064138 1.9625823
-1.3868954 0.77345788 1.9374372
1.4357549 0.77403933 1.9758173
1.421371 0.77508557 1.9857055
1.3987178 0.77159435 1.9837775
1.3848202 0.77290779 1.9941987
1.3703084 0.77390563 2.0037398
1.3594372 0.7770083 2.0187283
1.3232753 0.76555514 1.9954563
1.3206794 0.77347803 2.0229664
1.3028982 0.77259409 2.0272465
1.2795522 0.76834649 2.0225072
1.2548418 0.76315981 2.0151162
1.2406983 0.7643488 2.0245726
1.218172 0.76033664 2.0200424
1.193845 0.75507879 2.0120201
1.1773345 0.75468957 2.0169427
1.1683586 0.75918525 2.0349698
1.1470878 0.75570601 2.0313838
1.128688 0.75404698 2.0326052
1.096732 0.74315464 2.0085719
1.090683 0.74975568 2.0320668
1.0618482 0.74065751 2.0125895
1.061211 0.75124943 2.046953
1.0348154 0.74365133 2.0313194
1.0142032 0.74003947 2.0264966
0.99455124 0.73702663 2.0231988
0.97787875 0.73616117 2.0257323
0.96041518 0.73466277 2.0264134
0.93422788 0.72633284 2.0079625
0.92405313 0.73038197 2.0238874
0.9052062 0.72759765 2.0206599
0.89481586 0.73163182 2.0364394
0.8752805 0.72819906 2.0312009
0.850725 0.72039276 2.0135229
0.84597647 0.72938013 2.0430686
0.81281269 0.71374786 2.003015
0.79595709 0.71211696 2.0023789
0.78634465 0.71702796 2.0202184
0.7664414 0.71256387 2.0113664
0.75198263 0.71308446 2.0165925
0.72326595 0.69983029 1.9824222
0.71187633 0.70313907 1.9954065
0.70251578 0.70863509 2.0146129
0.69596267 0.71726304 2.0427821
0.67743391 0.71365798 2.035795
0.65525532 0.705957 2.0169055
0.63537747 0.70043468 2.0041513
0.62351435 0.70369542 2.0166345
0.60062772 0.69437081 1.9926735
0.59829825 0.70893943 2.0377569
0.57489347 0.69864202 2.0107682
0.55367303 0.69052798 1.9899629
0.53277981 0.6823951 1.9689658
0.5263499 0.69284993 2.0019557
0.51808214 0.70141256 2.0294328
0.50220382 0.69987202 2.0274069
0.48792222 0.70053071 2.031723
0.46997815 0.69580805 2.0202267
0.44849986 0.68538064 1.9919177
0.43025285 0.67936176 1.9763969
0.41767433 0.6821872 1.9867247
0.40122971 0.6786744 1.9783781
0.38257873 0.67103207 1.9577981
0.3694593 0.67287803 1.9650321
0.36495912 0.69119507 2.0207276
0.34876028 0.68795758 2.0128949
0.3302263 0.67963362 1.9899675
0.3189666 0.68620455 2.010915
0.30545595 0.68832701 2.0186758
0.2858139 0.67615575 1.9841058
0.27050373 0.67349344 1.9775563
0.25663111 0.67431355 1.9812398
0.2446623 0.68052536 2.0008318
0.22931036 0.67751449 1.9930362
0.21519138 0.67798859 1.9954985
0.20236856 0.68290406 2.0110734
0.18487217 0.6715939 1.9784224
0.17407419 0.6847592 2.018368
0.15827042 0.67883301 2.0015514
0.14446813 0.68116659 2.0092041
0.12959321 0.67839974 2.0016286
0.11461661 0.67434913 1.9901615
0.10066207 0.67601651 1.9956306
0.086554691 0.67703748 1.9991115
0.07236924 0.67773032 2.0015495
0.058262926 0.67968661 2.0076811
0.043847118 0.67813092 2.0032918
0.029440869 0.67529136 1.9950117
0.015204225 0.6746704 1.9932686
0.00099090883 0.67212898 1.9857403
-0.013158814 0.67180628 1.9847509
-0.027294535 0.67147362 1.9836646
-0.041906808 0.67909032 2.0061762
-0.056180235 0.67873716 2.0048931
-0.070404701 0.67805576 2.0025654
-0.08447995 0.67640942 1.9972993
-0.098763153 0.67666292 1.99762
-0.11300218 0.67658806 1.9968959
-0.12759528 0.6784125 2.0017514
-0.14206338 0.67927182 2.0036674
-0.15693147 0.68171144 2.0102088
-0.17030127 0.67777908 1.9977502
-0.18506183 0.67956191 2.0022018
-0.20138682 0.68642122 2.0216446
-0.21549784 0.68532068 2.0173893
-0.22913279 0.68293941 2.0092711
-0.24470346 0.68626821 2.0180101
-0.255492 0.67656213 1.9880689
-0.27017435 0.67764813 1.9900316
-0.28236616 0.67269164 1.9740514
-0.30036175 0.68137491 1.9983326
-0.32062107 0.69416726 2.0346437
-0.32869744 0.68061733 1.9930905
-0.3486664 0.69179612 2.0244465
-0.35994437 0.68552589 2.0042691
-0.37787607 0.69192272 2.0213397
-0.38690802 0.68215346 1.9907616
-0.39720321 0.67523116 1.9685308
-0.41896531 0.68760711 2.0029144
-0.43405813 0.68857604 2.003705
-0.4458895 0.68447572 1.9895691
-0.46816966 0.69616967 2.0216012
-0.47340268 0.68257397 1.9795696
-0.49137616 0.68760806 1.9919435
-0.50606871 0.68789411 1.9903656
-0.51432151 0.67965454 1.9638846
-0.52909142 0.68023998 1.9630588
-0.5574683 0.69782752 2.0115414
-0.57287884 0.69869745 2.0113199
-0.58170056 0.69168907 1.9881953
-0.60107023 0.69725913 2.0014377
-0.61843914 0.70029789 2.007247
-0.63336736 0.70049578 2.0047612
-0.64655167 0.69879979 1.9967448
-0.65817249 0.69552702 1.984135
-0.67935473 0.70228094 2.0002582
-0.69429934 0.70243627 1.9973332
-0.7108202 0.7041465 1.9987777
-0.72353083 0.70208967 1.9893714
-0.74042118 0.70408964 1.9914724
-0.75570595 0.70451444 1.9889935
-0.77202064 0.70586449 1.98906
-0.78663933 0.7056421 1.9845778
-0.80725604 0.71070874 1.9949807
-0.82193887 0.71046162 1.9902474
-0.842098 0.71487236 1.9985605
-0.85011679 0.70900309 1.9778423
-0.87608337 0.71804661 1.9989504
-0.89854503 0.72395921 2.0111055
-0.90752578 0.7189942 1.9927255
-0.92384994 0.71991462 1.9907287
-0.94423443 0.7239182 1.9972121
-0.9577924 0.72264397 1.9889241
-0.97710985 0.72568709 1.9925188
-0.99526483 0.72778648 1.9933866
-1.0070605 0.7252425 1.9813607
-1.0395916 0.73748404 2.0098944
-1.0386684 0.72598237 1.9731376
-1.0618347 0.7314074 1.9827075
-1.0729761 0.72851288 1.9694505
-1.1092049 0.74249333 2.0020068
-1.1231972 0.74140698 1.9934472
-1.1314812 0.73663414 1.9748626
-1.1509929 0.73920113 1.9760451
-1.172029 0.74266571 1.9795172
-1.1902474 0.744277 1.9778903
-1.2045524 0.74343103 1.9695957
-1.2462969 0.75932467 2.0057924
-1.2537289 0.75417525 1.9858059
-1.2737278 0.75661945 1.985911
-1.2870682 0.75509703 1.9754356
-1.3003249 0.75356323 1.9648761
-1.3320038 0.76261353 1.981985
-1.3447542 0.76074028 1.9703407
-1.3660477 0.76368713 1.9711889
-1.3808725 0.76299107 1.9624614
-1.4022576 0.76589429 1.9629651
1.4367967 0.75828671 1.9811202
1.4102409 0.7528196 1.9738679
1.399725 0.75588727 1.989066
1.3760699 0.75184822 1.98533
1.3616462 0.75281692 1.9948112
1.345037 0.75258601 2.0010159
1.3315543 0.75412029 2.0118804
1.3190221 0.75623721 2.024262
1.293051 0.75060588 2.0156331
1.2708217 0.74703169 2.0124083
1.2612342 0.75089246 2.0292852
1.2509762 0.75444901 2.0453138
1.2180437 0.7442444 2.023617
1.2072468 0.74747348 2.0385835
1.1867487 0.7447021 2.0369821
1.1625657 0.73951077 2.0285645
1.1436901 0.73759836 2.0290699
1.1290077 0.73837459 2.0369356
1.1052003 0.73312002 2.0279214
1.0842702 0.72964942 2.0237308
1.0731766 0.73279351 2.0379403
1.0527914 0.72959214 2.0342865
1.0230684 0.71972483 2.0117288
1.0191307 0.72797292 2.0400991
1.0031589 0.72774827 2.0445201
0.98553538 0.72629911 2.0453811
0.95823485 0.71755695 2.0253975
0.93965012 0.71516192 2.0233099
0.92585981 0.71639693 2.0314815
0.91316408 0.71853513 2.0421731
0.87451178 0.69997084 1.9933981
0.8605417 0.70085824 2.0002556
0.84946388 0.70417482 2.0140452
0.83570671 0.70535046 2.0216122
0.81016779 0.69644165 1.9999307
0.80417275 0.70431417 2.0267248
0.78276747 0.69873321 2.0144453
0.77335012 0.70384401 2.033144
0.74787468 0.69425249 2.0089486
0.71955097 0.68157184 1.9755498
0.71616596 0.69247758 2.0109627
0.71014118 0.70124 2.0401261
0.6827383 0.6888144 2.0070865
0.67372292 0.6948002 2.027997
0.65278566 0.68848383 2.0126488
0.64607424 0.69722623 2.0415928
0.62115252 0.68626511 2.0123205
0.60375929 0.68329036 2.0065084
0.58887422 0.6830765 2.0087764
0.57165647 0.68007666 2.0027006
0.55455709 0.6770637 1.9964865
0.52920401 0.66353941 1.9588995
0.52599102 0.67779499 2.0038979
0.51097411 0.67721927 2.0046892
0.49914801 0.68096274 2.0183022
0.47989205 0.67449003 2.0013218
0.46197149 0.66954899 1.9888095
0.44528911 0.66614223 1.9807898
0.4327538 0.66891921 1.9912268
0.41582972 0.66486984 1.9811116
0.40543914 0.67135066 2.0025525
0.39205703 0.67317373 2.0099463
0.37789556 0.67374712 2.0135159
0.35901588 0.6656186 1.9907895
0.3441768 0.6646173 1.9894506
0.32937568 0.66360575 1.988006
0.32007316 0.67408264 2.0211968
0.29960814 0.66092968 1.9829199
0.28695241 0.66455156 1.9952713
0.27426532 0.66847676 2.008487
0.25644678 0.65963739 1.9829777
0.24460404 0.6660338 2.0035522
0.22667173 0.65561312 1.9730735
0.21524049 0.66386056 1.999143
0.19949284 0.6590212 1.9854373
0.18543926 0.65946573 1.9876994
0.17087854 0.65803117 1.9841849
0.157342 0.6606375 1.9928833
0.14308363 0.66042984 1.9929627
0.12998798 0.66613483 2.0109603
0.11594178 0.66777873 2.0165434
0.10101712 0.66411269 2.0058992
0.086859643 0.66511321 2.0093887
0.07238593 0.66360933 2.0051858
0.058085281 0.66334271 2.0046823
0.043919045 0.66493738 2.0097797
0.029503178 0.66246784 2.0024312
0.015286685 0.66404283 2.0073345
0.00099395227 0.65999365 1.9950384
-0.013193003 0.65936571 1.9930967
-0.027482033 0.66184676 2.0005584
-0.041877192 0.66431785 2.007921
-0.056035012 0.66272444 2.0028369
-0.06985864 0.65862662 1.9900612
-0.083544545 0.65483141 1.9781437
-0.097902551 0.65663934 1.9832183
-0.11286854 0.66155475 1.9976798
-0.127445 0.66334194 2.0025494
-0.14009857 0.65576845 1.9788809
-0.15586865 0.66283399 1.9996642
-0.1708201 0.66552538 2.0070717
-0.18796417 0.67568243 2.0370824
-0.19807366 0.66090912 1.9913012
-0.21264745 0.66201299 1.9936782
-0.22651836 0.66092741 1.9893428
-0.24192634 0.66418993 1.9981242
-0.2559098 0.66339588 1.9945351
-0.27010876 0.66321486 1.9927362
-0.28442919 0.66333503 1.9917809
-0.29511043 0.65536231 1.9662845
-0.31409809 0.66572183 1.9961468
-0.32846537 0.66581208 1.9948868
-0.34299138 0.66620314 1.9944643
-0.35686287 0.66534239 1.9901966
-0.36619058 0.65640336 1.961533
-0.38537768 0.66514498 1.98605
-0.40064505 0.66673762 1.9889563
-0.41481644 0.66645932 1.986164
-0.42158765 0.65470743 1.9488788
-0.42641097 0.64078832 1.9051011
-0.42532125 0.61913347 1.8381844
-0.41936183 0.59192038 1.7547226
-0.4149535 0.56843621 1.6825215
-0.41581815 0.55331314 1.6353693
-0.42821804 0.55395424 1.6352401
-0.46124756 0.58052498 1.7122114
-0.53719759 0.65829009 1.9410665
-0.55311918 0.66038996 1.9446577
-0.58130306 0.67665839 1.9901537
-0.59578264 0.67656922 1.9870266
-0.61719394 0.68416834 2.006547
-0.62640911 0.67820859 1.9859148
-0.61036938 0.6457994 1.8873327
-0.62148541 0.6429255 1.8758607
-0.67313987 0.68120056 1.9851929
-0.70251834 0.69578212 2.0246108
-0.70750773 0.68610394 1.9927989
-0.71821451 0.68225247 1.9780331
-0.74191087 0.6906473 1.9989482
-0.75722486 0.69106257 1.9964665
-0.76912773 0.68840867 1.984984
-0.7749933 0.68055338 1.9583683
-0.80284381 0.69193739 1.9874531
-0.82105446 0.69474995 1.9915682
-0.84010178 0.69815719 1.9972862
-0.84435135 0.6893633 1.9677837
-0.87402314 0.70127046 1.9977363
-0.878335 0.69277126 1.9690089
-0.90618432 0.70281076 1.9932951
-0.92567289 0.70614278 1.9982456
-0.94002825 0.70551449 1.991805
-0.96460009 0.71245217 2.006767
-0.97944289 0.71209931 2.0009115
-0.99171978 0.70992053 1.9898218
-1.0043207 0.70803624 1.9795119
-1.0242192 0.71127611 1.9835491
-1.0393814 0.71117991 1.9781077
-1.0634584 0.71709782 1.9894007
-1.0732623 0.71335959 1.973601
-1.1007934 0.72134328 1.9903716
-1.1160716 0.72118747 1.9843684
-1.1374441 0.7249198 1.9890372
-1.1503619 0.72323585 1.9786326
-1.1689837 0.72513497 1.9780241
-1.1837499 0.72462404 1.9706981
-1.2004509 0.72529525 1.9665304
-1.2421685 0.74087 2.002871
-1.2581534 0.74089664 1.9966432
-1.2674596 0.73703903 1.9798182
-1.2879792 0.73971683 1.9806142
-1.2965372 0.73554313 1.9628556
-1.344065 0.75331169 2.0039096
-1.3564125 0.75117433 1.991383
-1.3729734 0.75139302 1.985088
-1.3884206 0.75100428 1.9770972
-1.3916824 0.74410897 1.951833
1.4383734 0.74278677 1.9870924
1.4206375 0.74205345 1.9923118
1.3979727 0.73869878 1.9903196
1.3922021 0.74429721 2.012578
1.3631333 0.73742491 2.0007651
1.3427916 0.73516512 2.0013964
1.335626 0.74015206 2.0218518
1.3370565 0.75008434 2.0559723
1.2954818 0.73583764 2.0232012
1.2777826 0.73496342 2.0272605
1.2355235 0.71975929 1.9912699
1.2369643 0.7299487 2.0259502
1.2223026 0.73077857 2.0344672
1.210971 0.73364812 2.0486538
1.1837313 0.72682732 2.0354612
1.155802 0.71939069 2.0203307
1.1537831 0.72809851 2.0508122
1.1228695 0.71856064 2.0294268
1.0950488 0.71075815 2.0127606
1.0894791 0.71738118 2.0371654
1.0685939 0.71396577 2.0327904
1.0373698 0.70343804 2.0078249
1.0259023 0.706191 2.0209174
0.99905145 0.6982767 2.0031316
0.9867087 0.70041382 2.0142789
0.93599868 0.67495203 1.9452049
0.95765764 0.70169604 2.0277064
0.93867946 0.69905269 2.0247252
0.93236971 0.70591271 2.0494254
0.90565085 0.69729143 2.0287492
0.89373654 0.69996798 2.0410731
0.86410743 0.68862116 2.0120616
0.84708452 0.68709475 2.0118032
0.82577252 0.68197089 2.0008106
0.8163926 0.68669391 2.0188479
0.79807365 0.68393427 2.0146513
0.7795167 0.68086082 2.0094106
0.7678076 0.68376529 2.021868
0.75299329 0.68396521 2.0262058
0.73977828 0.68565559 2.0349243
0.71315098 0.67472667 2.00578
0.69941789 0.67579204 2.0124364
0.68410647 0.67534542 2.0144823
0.6711899 0.67729574 2.0236626
0.65584648 0.67683005 2.0254996
0.63537806 0.67093092 2.0108466
0.61682647 0.66682369 2.0014827
0.60389012 0.66873449 2.0102358
0.58767229 0.66701621 2.0079219
0.57203883 0.66589016 2.0073178
0.5569517 0.66535765 2.008435
0.54015476 0.66269869 2.0029972
0.52586395 0.6630522 2.0066514
0.51225066 0.66430455 2.0129795
0.49948344 0.66675991 2.0229208
0.48329884 0.66466391 2.0188766
0.46655703 0.66164684 2.0119226
0.44931799 0.65770793 2.0020475
0.4326447 0.65436256 1.9938976
0.41591656 0.65070134 1.9846843
0.40346447 0.65370733 1.995891
0.38780251 0.65154272 1.9911209
0.37762904 0.65878671 2.0152698
0.36395106 0.66025114 2.0215564
0.34489319 0.65167195 1.9967684
0.33283991 0.65615779 2.0122399
0.31851882 0.65637696 2.0144682
0.29995307 0.64745462 1.9883364
0.29010397 0.65739566 2.0205154
0.2724089 0.64966744 1.9979092
0.2588006 0.65136987 2.0044475
0.24328418 0.64818782 1.9957675
0.22844222 0.64651859 1.9917046
0.2142764 0.64666837 1.9932178
0.19783686 0.63948977 1.9718902
0.18556623 0.64571947 1.9921609
0.17382939 0.6549927 2.0218477
0.15722707 0.64595193 1.9945041
0.14311421 0.64635903 1.9964801
0.1289207 0.64645141 1.9974099
0.11585888 0.65294462 2.018208
0.1010865 0.65027082 2.010391
0.086511828 0.64819747 2.0043733
0.07240165 0.64947295 2.0087225
0.058207192 0.65043342 2.0120242
0.04368126 0.64710897 2.0019009
0.029426167 0.64652312 2.0002465
0.015246901 0.64806515 2.0051599
0.00099510583 0.64654374 2.0004544
-0.013214565 0.64623421 1.9994603
-0.027397249 0.64560944 1.9974171
-0.041787948 0.64864004 2.0067022
-0.056020774 0.64830136 2.0054159
-0.07070104 0.65222782 2.0173559
-0.084477775 0.64790034 2.0035038
-0.098434992 0.64600623 1.997171
-0.11310571 0.64868188 2.005007
-0.12705302 0.6470741 1.9994332
-0.14172721 0.64911914 2.0051658
-0.15392227 0.64047438 1.977563
-0.17061704 0.65043288 2.0077784
-0.18280306 0.64299178 1.983802
-0.19886307 0.64926732 2.0024073
-0.21209227 0.64607877 1.9915279
-0.22699349 0.64806432 1.9966544
-0.24129744 0.6482107 1.9959995
-0.25608447 0.64956623 1.999025
-0.27333567 0.6566987 2.0198815
-0.28622425 0.65315992 2.0075889
-0.29923388 0.65022248 1.9971021
-0.31563231 0.65458089 2.0091248
-0.32378045 0.64219517 1.9693094
-0.33714381 0.64075637 1.9632899
-0.35177249 0.64174139 1.9646872
-0.35327116 0.61962098 1.8947808
-0.35919783 0.60662156 1.8530208
-0.35187364 0.57297581 1.7477369
-0.35196337 0.55331123 1.6855695
-0.35458818 0.53881294 1.6393275
-0.36090976 0.53068793 1.6126708
-0.37219399 0.53014034 1.6092304
-0.38388759 0.5301916 1.6075686
-0.39535189 0.52993238 1.6048989
-0.40749648 0.53057379 1.6049231
-0.42133567 0.53332436 1.6113174
-0.44019747 0.54211164 1.6360207
-0.53680128 0.64365202 1.9427768
-0.55555737 0.64903027 1.9564816
-0.5835467 0.66465575 2.0011592
-0.60133874 0.66818684 2.0089869
-0.61121291 0.66296124 1.9902176
-0.5918451 0.62700015 1.8785775
-0.60466838 0.62600315 1.8726509
-0.65965337 0.66772836 1.9953107
-0.67723221 0.67059708 2.0006745
-0.68034887 0.65932816 1.9635007
-0.6962682 0.66067773 1.9641744
-0.72514921 0.67401981 2.0006287
-0.72725958 0.66244274 1.9624635
-0.75437224 0.67364722 1.992242
-0.7730577 0.67703962 1.9985808
-0.78908908 0.67802328 1.9976519
-0.80160445 0.67600536 1.9877394
-0.80788845 0.66890174 1.9627323
-0.83845729 0.68179941 1.9967617
-0.83893889 0.67020804 1.958432
-0.86283666 0.67740053 1.9753712
-0.88856494 0.68576175 1.9955679
-0.88404906 0.67089194 1.9476042
-0.92270523 0.68873525 1.9952585
-0.93620628 0.68752885 1.9871103
-0.96278018 0.69580877 2.0064631
-0.9738462 0.69279724 1.9928888
-0.99365115 0.69599968 1.9972454
-1.004564 0.69297093 1.9835014
-1.0266455 0.69762206 1.9918176
-1.0431665 0.69841331 1.988907
-1.0579135 0.69801122 1.9824877
-1.076704 0.70025021 1.9835331
-1.0941892 0.70158923 1.9819009
-1.1219426 0.70938349 1.9984926
-1.132561 0.70627826 1.9840231
-1.1559135 0.7110908 1.9918727
-1.1567385 0.70210153 1.960716
-1.1879795 0.71156734 1.9814168
-1.1992928 0.70900607 1.9682291
-1.2400165 0.72367448 2.0030608
-1.2645893 0.72866488 2.010648
-1.250917 0.7117691 1.957404
-1.2505352 0.70275974 1.926168
-1.2921985 0.71730983 1.9598919
-1.3391753 0.73442298 2.0003068
-1.3075825 0.70855302 1.9227508
-1.3317435 0.71314847 1.9286479
-1.3784651 0.72957748 1.9665269
-1.4003953 0.73265827 1.9678806
1.4332196 0.72385156 1.9836037
1.4116559 0.72114921 1.9832928
1.4038626 0.72550029 2.0024672
1.3720138 0.71737599 1.9868265
1.3651358 0.72227013 2.0074086
1.366524 0.73170811 2.0407717
1.3381058 0.72522175 2.0293317
1.3192687 0.72383219 2.0321054
1.3025153 0.72356546 2.0379574
1.2791483 0.71957153 2.0331109
1.2654532 0.72098583 2.0435538
1.2363031 0.71351713 2.0284929
1.2240969 0.71575963 2.0411208
1.1895063 0.70479876 2.0156548
1.1845164 0.71131754 2.0404398
1.1612897 0.70691347 2.0335901
1.1293654 0.69701922 2.0106263
1.1074989 0.69314122 2.0049555
1.0975869 0.69674134 2.0209968
1.082126 0.69687229 2.0268459
1.0732749 0.70132613 2.0453162
1.0581125 0.70172733 2.0518329
1.0261433 0.69082582 2.0248907
1.0094556 0.6900351 2.0276401
0.99111331 0.68807113 2.0268135
0.97242665 0.68580216 2.0249689
0.95179313 0.68206477 2.0186319
0.94208634 0.68616349 2.035584
0.91095936 0.67453766 2.0054023
0.88882709 0.66929126 1.9941384
0.87680441 0.67160779 2.0054827
0.86242223 0.67216659 2.0114768
0.85610396 0.6791423 2.0367882
0.83101434 0.67120969 2.0169654
0.81870127 0.67349428 2.0279644
0.79859221 0.66933078 2.0193095
0.78036636 0.66661608 2.0149391
0.76291972 0.66447377 2.0122054
0.74621558 0.6629054 2.0111241
0.73604798 0.66719818 2.0278971
0.72346026 0.66943032 2.0383167
0.72383517 0.68400669 2.0866165
0.69156247 0.66769487 2.039907
0.67520779 0.66636884 2.0391595
0.65247911 0.65854943 2.0182688
0.63236696 0.65306908 2.0044608
0.61890364 0.65435797 2.0114937
0.60373992 0.6538679 2.0129445
0.59045166 0.65543526 2.0207071
0.57630754 0.65610856 2.0256269
0.56161952 0.65618169 2.0286083
0.54248196 0.65091991 2.0148749
0.5271697 0.65008348 2.0148463
0.50721651 0.64331317 1.9961823
0.49618053 0.64778727 2.0125973
0.48163342 0.64780939 2.015018
0.46536773 0.64544934 2.009891
0.43966469 0.62942672 1.961759
0.43212786 0.63921016 1.9945964
0.41755062 0.6388942 1.9956361
0.40204406 0.63708311 1.9918922
0.3887834 0.63882846 1.999283
0.3729994 0.63640249 1.9934462
0.3576535 0.63456041 1.9893705
0.34431738 0.63627911 1.9964741
0.33120859 0.63858515 2.0053759
0.31429815 0.63343835 1.9906164
0.29972979 0.63274717 1.989885
0.28841531 0.63919848 2.0117328
0.27054623 0.63103819 1.9871696
0.25945827 0.63866663 2.0126412
0.24516387 0.63883358 2.0143659
0.23085859 0.63899142 2.0159934
0.21411681 0.63197851 1.9947447
0.1995745 0.63092214 1.9923607
0.18604167 0.63313961 2.000329
0.17094849 0.62997431 1.9910914
0.1595623 0.64113212 2.0274162
0.14273717 0.63048166 1.9941872
0.12998201 0.63744223 2.0170193
0.11420244 0.62945789 1.9921333
0.10048972 0.6322183 2.0014436
0.086407006 0.63317704 2.0049422
