# .PCD v0.7 - Point Cloud Data file format
VERSION 0.7
FIELDS x y z
SIZE 4 4 4
TYPE F F F
COUNT 1 1 1
WIDTH 1435
HEIGHT 1
VIEWPOINT 0 0 0 1 0 0 0
POINTS 1435
DATA ascii
0.38558549 -0.50468326 1.4182116
0.37466526 -0.50398552 1.4180746
0.36469948 -0.50456852 1.4215275
0.35266781 -0.50224364 1.4166406
0.33632898 -0.49345878 1.3932451
0.32674026 -0.49433851 1.3973612
0.3164911 -0.49424359 1.3986431
0.30784261 -0.49672505 1.4072527
0.29715303 -0.49597058 1.4065487
0.28686398 -0.49585468 1.4076225
0.27639529 -0.49540821 1.4076953
0.26559335 -0.49430719 1.4058335
0.2556687 -0.49481633 1.4085493
0.24154404 -0.48690143 1.3869549
0.23220511 -0.48836544 1.3923087
0.22250834 -0.48917556 1.3957332
0.21657488 -0.4987286 1.4243519
0.20273824 -0.49012756 1.4005153
0.19485879 -0.49578127 1.4178033
0.18348339 -0.49267372 1.4097202
0.17223296 -0.48955727 1.401551
0.16272023 -0.49129966 1.4073938
0.1521256 -0.4897899 1.4037703
0.14243819 -0.49119407 1.4085412
0.13216628 -0.49064329 1.4075975
0.12223841 -0.49138421 1.4103516
0.10998096 -0.48204842 1.3838102
0.10215183 -0.49219528 1.4137723
0.091959976 -0.49194029 1.4134926
0.081615269 -0.49070299 1.4103103
0.070799515 -0.485883 1.3966657
0.061360657 -0.49048099 1.4103434
0.051154155 -0.48954639 1.4078933
0.040685598 -0.48502842 1.3949745
0.030649623 -0.48440391 1.3933276
0.020652946 -0.4840973 1.3925575
0.010690262 -0.48475882 1.3945559
0.00069654518 -0.48281214 1.3889208
-0.0091794021 -0.47890761 1.3775437
-0.019282093 -0.48474953 1.3944676
-0.029291384 -0.48505712 1.3952472
-0.039312765 -0.48535743 1.3959579
-0.049048539 -0.48272502 1.3880942
-0.059310567 -0.48528638 1.3952835
-0.068609424 -0.48036489 1.3806751
-0.068303406 -0.4179168 1.1988798
-0.078043342 -0.42403832 1.2163166
-0.085374348 -0.41715634 1.1959412
-0.093664736 -0.4157925 1.1915562
-0.10213706 -0.41539732 1.1899439
-0.11050498 -0.41467136 1.1873324
-0.11865488 -0.41329035 1.1827824
-0.12734541 -0.41385123 1.1838228
-0.13467194 -0.41018716 1.1725839
-0.14377041 -0.41203424 1.1772684
-0.15174381 -0.41063073 1.1725023
-0.16028988 -0.41084337 1.1723726
-0.1692417 -0.41202235 1.174993
-0.17614225 -0.40833354 1.1635137
-0.18508552 -0.4095006 1.1660179
-0.19254318 -0.40742233 1.1591202
-0.20039198 -0.4063108 1.1549759
-0.21018776 -0.40907776 1.1619582
-0.21698129 -0.40601352 1.1521175
-0.22687735 -0.40876675 1.1589646
-0.23520754 -0.40860257 1.1573818
-0.24352753 -0.40843254 1.1557418
-0.25343087 -0.41084078 1.1614461
-0.26034126 -0.40839824 1.1532137
-0.26927221 -0.40917903 1.1541679
-0.27801189 -0.40963066 1.154135
-0.28699124 -0.41039824 1.1549581
-0.29715723 -0.41277039 1.1603036
-0.30574548 -0.41287979 1.1591527
-0.31384358 -0.41233927 1.1561116
-0.32493314 -0.41565397 1.1639702
-0.33099195 -0.41252834 1.1535113
-0.342738 -0.41647002 1.1630307
-0.3497611 -0.41462025 1.1561111
-0.36003307 -0.41661826 1.1600189
-0.36896083 -0.4170039 1.1593236
-0.37673762 -0.4161008 1.1549559
-0.38684589 -0.41775566 1.1577353
-0.39459011 -0.416841 1.1532514
-0.40445799 -0.41816109 1.1549861
-0.41405666 -0.41915354 1.1557484
-0.42046663 -0.41694337 1.1475234
-0.43992427 -0.42750099 1.1748228
-0.44539449 -0.42431843 1.1637851
-0.45073169 -0.42113423 1.1527301
-0.46045363 -0.42208967 1.1531237
-0.47020614 -0.42303726 1.1534398
-0.48286945 -0.42652148 1.1606941
-0.49126637 -0.42617995 1.1573355
-0.50001478 -0.42614987 1.1547902
-0.50913286 -0.42643061 1.1530505
-0.51324844 -0.42258292 1.1399738
-0.53011584 -0.42918772 1.1554117
-0.5404765 -0.4303942 1.1560289
-0.55006832 -0.43095937 1.1548426
-0.5604924 -0.43214828 1.1552922
-0.56887412 -0.43174985 1.1513896
-0.58398211 -0.43639013 1.1610287
-0.58855838 -0.43313891 1.1493379
-0.60124737 -0.43586618 1.1536795
-0.61050963 -0.43606547 1.1511735
-0.61352211 -0.4318597 1.1368642
-0.62947655 -0.4367539 1.1467828
-0.64285767 -0.43974972 1.1515461
-0.65077114 -0.4389742 1.1462377
-0.65911335 -0.43850511 1.1417027
-0.6731382 -0.44177821 1.1469738
-0.68197256 -0.44160292 1.1431012
-0.68493325 -0.43767893 1.1293793
-0.69711334 -0.43967158 1.1311015
-0.70685685 -0.44009614 1.1286688
-0.72317201 -0.44454962 1.1366237
-0.72839338 -0.44215745 1.1267754
-0.74333239 -0.44565034 1.132074
-0.75054568 -0.44448274 1.125307
-0.75717151 -0.44299963 1.1177069
-0.77227199 -0.44645098 1.1226658
-0.77452862 -0.44248354 1.1086723
-0.80007452 -0.45175856 1.1282274
-0.81326836 -0.45392591 1.1296422
0.80533135 -0.4528217 1.0969442
0.80498689 -0.45782647 1.1133119
0.84974384 -0.48889637 1.1942134
0.89985061 -0.52381098 1.2851565
0.89096004 -0.52480483 1.2921393
0.87514049 -0.52169204 1.2888205
0.85156924 -0.51382607 1.2734741
0.84430349 -0.51572603 1.2825223
0.83695143 -0.51761997 1.2915345
0.82293797 -0.51538998 1.290079
0.81098974 -0.51441282 1.2917185
0.7911551 -0.50834304 1.280309
0.7988742 -0.52005053 1.3142028
0.77092791 -0.50854331 1.2886927
0.76483744 -0.51133722 1.299736
0.74874622 -0.50743002 1.2934831
0.75183839 -0.51659542 1.3209355
0.74264836 -0.51746088 1.326937
0.72345287 -0.51127994 1.3145672
0.71073055 -0.509561 1.313694
0.70290816 -0.51135612 1.3219332
0.69109422 -0.51025772 1.3225558
0.6835959 -0.51236063 1.3315254
0.67093647 -0.51060045 1.3302876
0.66083109 -0.51075935 1.3340428
0.6490677 -0.50962156 1.3343115
0.63895363 -0.50976288 1.3379073
0.62126213 -0.50376451 1.3251132
0.61789548 -0.50937545 1.3431545
0.60312098 -0.50561285 1.3361535
0.59265506 -0.50539488 1.3385499
0.58293474 -0.50581616 1.3426063
0.57245529 -0.50558203 1.3448505
0.56233686 -0.50566405 1.3478909
0.54795355 -0.50184309 1.3403345
0.53962839 -0.5035311 1.3475958
0.52712762 -0.50131279 1.3442272
0.51705372 -0.50136089 1.3469411
0.50729972 -0.50172722 1.3504688
0.50430399 -0.50892872 1.3725888
0.4886764 -0.50341702 1.3599917
0.47387737 -0.4985427 1.3490337
0.46928567 -0.50442857 1.3674766
0.45642826 -0.50149381 1.3616991
0.44891629 -0.50443244 1.3719971
0.44327414 -0.50965726 1.3885663
0.42212576 -0.49687824 1.3554556
0.41722935 -0.50307274 1.3746119
0.40890071 -0.50533479 1.3828851
0.39763123 -0.50398511 1.381116
0.38413948 -0.4996739 1.3710674
0.37253293 -0.49764848 1.3672861
0.36530757 -0.5015257 1.3798603
0.35536349 -0.50178498 1.3823329
0.34540412 -0.50203735 1.384737
0.3299382 -0.49405926 1.3641108
0.32544121 -0.50252098 1.3893383
0.31089386 -0.49550894 1.3712654
0.30002177 -0.49408302 1.3687491
0.29152367 -0.4966031 1.3772408
0.28105226 -0.49582145 1.3764285
0.27223077 -0.49800026 1.3838806
0.26140773 -0.49654427 1.3810723
0.25147471 -0.4967303 1.382829
0.24040739 -0.49459797 1.3780062
0.2301915 -0.49410853 1.3777564
0.22234805 -0.49889782 1.3923507
0.20910634 -0.49145451 1.3723738
0.19884028 -0.49061137 1.3709691
0.18924205 -0.49141407 1.3741667
0.17876403 -0.48989457 1.3707485
0.16868675 -0.48935959 1.3700647
0.16023971 -0.49378163 1.3833734
0.15120955 -0.49687439 1.3928801
0.13876016 -0.48837262 1.3694692
0.12874906 -0.4878082 1.368506
0.11940482 -0.48988622 1.3749937
0.10990117 -0.4916265 1.3804801
0.099584684 -0.48971537 1.3755513
0.089950934 -0.4911103 1.3799649
0.079827636 -0.48984692 1.3767787
0.069896251 -0.48957035 1.3763485
0.060015779 -0.48961809 1.3767931
0.050709646 -0.49529433 1.3931979
0.040492509 -0.49267551 1.3859662
0.030380663 -0.49004912 1.3786634
0.020194393 -0.48310477 1.3590276
0.010618002 -0.49140552 1.3827171
0.00068525801 -0.48477796 1.3638873
-0.0092785861 -0.49405923 1.3902739
-0.019268064 -0.49438027 1.3911196
-0.02883848 -0.48739967 1.371146
-0.038363244 -0.48339629 1.3595982
-0.048088718 -0.48303297 1.3583596
-0.057600189 -0.48100519 1.3523418
-0.065961905 -0.47134677 1.3245869
-0.066980004 -0.41826597 1.1733857
-0.074699864 -0.41423705 1.1615994
-0.083717749 -0.41749266 1.1704715
-0.091914944 -0.41643432 1.1670479
-0.10038721 -0.41669518 1.1673304
-0.10748482 -0.41165102 1.1525209
-0.1169855 -0.41587377 1.1639639
-0.12505746 -0.41479203 1.1603197
-0.13350981 -0.41502857 1.1603732
-0.14287458 -0.41790596 1.1678627
-0.15079576 -0.41647542 1.1631117
-0.15916279 -0.41636243 1.1620508
-0.1680551 -0.41756582 1.16467
-0.17643434 -0.41744038 1.1634907
-0.1845132 -0.41664806 1.1603891
-0.19194572 -0.41452903 1.1535085
-0.20216252 -0.41834882 1.1633295
-0.20887351 -0.41489828 1.1526239
-0.21993533 -0.42002299 1.1660137
-0.22743201 -0.41821137 1.1598437
-0.23782814 -0.4216702 1.1684381
-0.246626 -0.42215416 1.168628
-0.2526522 -0.41801992 1.1558332
-0.26447386 -0.42343178 1.1697391
-0.26950419 -0.417972 1.1531746
-0.28043845 -0.42172211 1.1623218
-0.28746232 -0.41954416 1.1548666
-0.29764086 -0.42196324 1.1601905
-0.30409777 -0.41911831 1.1508077
-0.31068233 -0.41659862 1.142306
-0.32520467 -0.42457515 1.1629097
-0.32972553 -0.41941965 1.1470153
-0.34117329 -0.42311287 1.1556069
-0.35140789 -0.42515799 1.1595711
-0.35950044 -0.42457572 1.1562244
-0.3709681 -0.42791378 1.1636404
-0.37676057 -0.42470255 1.1529663
-0.38775766 -0.42737052 1.1584239
-0.39128208 -0.42186564 1.1414024
-0.40324393 -0.4254984 1.1494011
-0.41281676 -0.42651129 1.1501619
-0.42049104 -0.42556134 1.1455138
-0.43107677 -0.42753696 1.1487966
-0.43704778 -0.42494804 1.1396084
-0.4521175 -0.43113536 1.1542102
-0.46255854 -0.4327583 1.1563439
-0.46775192 -0.42950255 1.145231
-0.48000878 -0.43273315 1.1516002
-0.49055228 -0.43433124 1.1534946
-0.49742642 -0.43268144 1.1466024
-0.50990742 -0.43588147 1.1526798
-0.514808 -0.43260291 1.1413504
-0.52387506 -0.43287653 1.1394908
-0.54207796 -0.44056621 1.1573224
-0.54685384 -0.43727109 1.1458409
-0.55763656 -0.43880761 1.1471547
-0.56348187 -0.43647143 1.1381671
-0.57344544 -0.43734813 1.1376339
-0.58899289 -0.44239235 1.1480024
-0.59994912 -0.44388887 1.1489507
-0.60567319 -0.44152707 1.1397376
-0.61397284 -0.44108418 1.1355174
-0.62314874 -0.44127449 1.1329045
-0.63048917 -0.44017792 1.1269028
-0.64334303 -0.44290763 1.1307725
-0.65111923 -0.44211465 1.1254656
-0.66028082 -0.44227114 1.1225672
-0.67617828 -0.44687504 1.1310298
-0.68687069 -0.44796303 1.130383
-0.69216293 -0.44554666 1.120737
-0.70334297 -0.44693369 1.1207513
-0.70698494 -0.44355619 1.108624
-0.71968305 -0.44587395 1.1108921
-0.73916596 -0.45228592 1.1233853
-0.7452873 -0.45046535 1.1150674
-0.75185508 -0.44895527 1.1075109
-0.76582366 -0.45184782 1.1109093
-0.77502573 -0.45189303 1.1071403
-0.78584737 -0.45287046 1.1056335
-0.78897828 -0.44944444 1.0932034
0.79190612 -0.45426473 1.0761389
0.80050743 -0.46447265 1.1047169
0.82454854 -0.48398042 1.1559354
0.87757093 -0.52115762 1.2503567
0.85503018 -0.51381135 1.2368469
0.85545135 -0.52025276 1.2568818
0.83837759 -0.51608181 1.2509326
0.82091796 -0.51156747 1.244019
0.81075943 -0.51154697 1.2480812
0.80159611 -0.51216173 1.2536665
0.79789054 -0.51632416 1.2680286
0.78513116 -0.5146597 1.2678748
0.77924794 -0.51751816 1.2789558
0.77035385 -0.51842648 1.2851356
0.75665057 -0.51607919 1.283085
0.74066722 -0.51209128 1.2768072
0.73038781 -0.51199096 1.2802571
0.72926635 -0.51839781 1.3001666
0.71658695 -0.51665431 1.2993728
0.69860226 -0.51097995 1.2884709
0.68213564 -0.50626546 1.2798941
0.68798238 -0.5182178 1.3139557
0.66596538 -0.50922608 1.2942578
0.65567005 -0.50905871 1.2971414
0.63829631 -0.50330466 1.2855299
0.63465589 -0.50836867 1.3018233
0.61748892 -0.50258642 1.2899563
0.6084823 -0.5033654 1.2950474
0.59787065 -0.50282043 1.2966408
0.58881134 -0.50358462 1.3015993
0.58350557 -0.50764078 1.3151425
0.56535816 -0.50047123 1.2991929
0.55480665 -0.49988997 1.3004527
0.55255884 -0.50690526 1.321692
0.53657812 -0.50134873 1.3097259
0.52497482 -0.4997499 1.3081303
0.51581556 -0.50046098 1.3125956
0.50662178 -0.50116563 1.3169993
0.49673551 -0.50119984 1.3195727
0.48684067 -0.5012266 1.3220747
0.47598892 -0.50024879 1.3218398
0.46578744 -0.49992737 1.3233023
0.45528805 -0.49926525 1.3237964
0.44451031 -0.49826178 1.3233165
0.43463698 -0.49824953 1.3254441
0.42504212 -0.49856347 1.3284
0.41542915 -0.49887049 1.3312891
0.40579847 -0.49917063 1.3341115
0.39615038 -0.49946386 1.3368669
0.3859683 -0.49908158 1.3377426
0.37604761 -0.49902612 1.3394524
0.36907044 -0.50297922 1.3520092
0.35787061 -0.50123715 1.3490407
0.34882647 -0.50250101 1.3542031
0.33678976 -0.49940181 1.3474171
0.32925919 -0.50299889 1.3588563
0.31583363 -0.49753398 1.3454815
0.30364892 -0.49373484 1.3365852
0.29460642 -0.49496228 1.3413961
0.29053769 -0.50491786 1.3701159
0.27599195 -0.49672645 1.3489954
0.26644698 -0.49726275 1.3517784
0.26052219 -0.50485545 1.3739344
0.2446118 -0.49293128 1.3423219
0.23606168 -0.49546471 1.3504598
0.22633255 -0.49563587 1.3520439
0.21821204 -0.49950483 1.3637908
0.20825019 -0.49932599 1.3643208
0.19708744 -0.49610654 1.3563941
0.187194 -0.49591199 1.3567773
0.17875308 -0.49975681 1.3682959
0.16594124 -0.49111605 1.3451898
0.15636544 -0.49157324 1.3472278
0.14425284 -0.48358685 1.3258024
0.1355556 -0.48672843 1.3351865
0.1262958 -0.48817632 1.3398303
0.11673508 -0.48860449 1.3415995
0.10730386 -0.48970109 1.3451802
0.098029844 -0.49180418 1.3515142
0.088064887 -0.49052241 1.3483949
0.077124022 -0.48281363 1.3273524
0.067621984 -0.48320547 1.3287872
0.058915664 -0.4903492 1.3489635
0.049213678 -0.49038959 1.3493334
0.039427809 -0.48940873 1.3468144
0.029659798 -0.48808256 1.3432873
0.019957835 -0.48708707 1.3406343
0.010452631 -0.49352089 1.3586187
0.00067257287 -0.48541236 1.3360697
-0.0089294696 -0.48507124 1.3351003
-0.018556472 -0.485737 1.3368884
-0.028111394 -0.48470551 1.3339058
-0.037966739 -0.48806089 1.3430886
-0.04706369 -0.48228332 1.3268058
-0.056407195 -0.48055494 1.3217497
-0.065727681 -0.47915754 1.3175709
-0.073029488 -0.4652521 1.2785614
-0.082527094 -0.4668833 1.2827266
-0.090892747 -0.46242705 1.269925
-0.099884555 -0.46168044 1.267395
-0.10613409 -0.4494462 1.2329166
-0.10870161 -0.42471805 1.1637365
-0.11578231 -0.41990823 1.1498499
-0.12536418 -0.42420611 1.1611975
-0.13277309 -0.42107317 1.1518929
-0.14276935 -0.42603108 1.1649742
-0.15044539 -0.42389852 1.1583654
-0.15942471 -0.42546931 1.1619713
-0.16766563 -0.42501089 1.159919
-0.17462964 -0.421514 1.149431
-0.18700966 -0.43081293 1.1742505
-0.19134647 -0.42157966 1.1478544
-0.20137662 -0.4251377 1.1567237
-0.20838848 -0.42229381 1.1479
-0.21804796 -0.42482769 1.15385
-0.2263696 -0.42466363 1.1523271
-0.23430981 -0.42382133 1.1489003
-0.24317545 -0.42465338 1.1500316
-0.25147313 -0.42447117 1.1483358
-0.26140404 -0.42696831 1.1539372
-0.27036822 -0.42777956 1.1548694
-0.28089014 -0.43093133 1.1621499
-0.28702822 -0.42736998 1.1510452
-0.29788789 -0.43084154 1.1590933
-0.30625847 -0.43062001 1.1570197
-0.31339261 -0.42871904 1.1503383
-0.32145298 -0.42815194 1.1472495
-0.33128989 -0.42991942 1.1504526
-0.34092614 -0.43134457 1.1526719
-0.34898925 -0.43075824 1.1493977
-0.35979432 -0.43350366 1.1550802
-0.36786574 -0.43290415 1.1516787
-0.37416962 -0.43029931 1.1428403
-0.38362631 -0.43135545 1.1438189
-0.39190733 -0.43107241 1.141151
-0.40233463 -0.43311197 1.1446624
-0.41598782 -0.43846658 1.1569746
-0.42276126 -0.43649903 1.1496481
-0.43174973 -0.43685147 1.1484766
-0.439073 -0.43553829 1.1428272
-0.44702089 -0.43488339 1.1388931
-0.46187738 -0.44084722 1.1524544
-0.47130024 -0.44149983 1.151866
-0.47750434 -0.43916833 1.1433514
-0.48544189 -0.43848595 1.1391585
-0.50078702 -0.44440114 1.1522626
-0.50840336 -0.44337192 1.147047
-0.51751071 -0.44365588 1.1452326
-0.52388579 -0.44162703 1.1373316
-0.53136665 -0.44058165 1.1319702
-0.5452475 -0.44479087 1.1402276
-0.55886734 -0.44865686 1.1474973
-0.56390178 -0.44561735 1.136817
-0.5747124 -0.44716573 1.1379622
-0.57873183 -0.44346321 1.1255319
-0.59474176 -0.44892201 1.1366135
-0.60522908 -0.45011291 1.1366525
-0.6175319 -0.45259985 1.139937
-0.62088406 -0.44854939 1.1264981
-0.62636399 -0.44612864 1.1172068
-0.63730574 -0.4476113 1.1177859
-0.65533137 -0.45396048 1.1305829
-0.66121674 -0.45184177 1.1219268
-0.67278749 -0.45361304 1.1230183
-0.67320573 -0.44791713 1.1053532
-0.69065905 -0.45355636 1.1160051
-0.69982237 -0.4536767 1.1128
-0.71906811 -0.46024728 1.1255375
-0.72118139 -0.45582485 1.1109614
-0.72105718 -0.45011497 1.0932395
-0.7295866 -0.44988057 1.0890069
-0.74547851 -0.45413685 1.0957212
-0.76150501 -0.4583728 1.1022711
-0.76203561 -0.45329139 1.0860649
-0.7836082 -0.46069923 1.1001427
-0.80322224 -0.46679837 1.1108918
0.79572576 -0.46549097 1.0790861
0.79271764 -0.46905726 1.0914803
0.80700666 -0.48306009 1.1286079
0.85477102 -0.51766545 1.2148901
0.84795761 -0.5196476 1.2238964
0.84000123 -0.52096856 1.2313039
0.81265718 -0.51015103 1.2095369
0.802203 -0.50980014 1.2127625
0.79327708 -0.51042378 1.2182887
0.78481823 -0.51136756 1.2245514
0.7763105 -0.51230323 1.2307589
0.76726103 -0.51290101 1.2361062
0.75622511 -0.5121693 1.2381577
0.74134707 -0.50878114 1.2336264
0.73228544 -0.50934714 1.2387308
0.72365987 -0.51023614 1.2445903
0.71591693 -0.51178074 1.2520351
0.70810568 -0.51331931 1.2594355
0.69570583 -0.51152796 1.2585126
0.69094115 -0.51537985 1.2716061
0.66534328 -0.50357699 1.2455015
0.67054182 -0.51507849 1.2776943
0.6483503 -0.50556993 1.2571039
0.63957185 -0.50638914 1.2624003
0.62617922 -0.50352353 1.2583344
0.61451972 -0.50198281 1.2575411
0.6049242 -0.50210559 1.2609063
0.60286498 -0.50859016 1.2804313
0.58529943 -0.50199139 1.2665693
0.57528365 -0.50175405 1.2688615
0.56754071 -0.50352502 1.2762517
0.55562437 -0.50159037 1.2740842
0.55293149 -0.50806189 1.2935007
0.53558302 -0.50105751 1.2781458
0.52662671 -0.5017904 1.2826811
0.51693982 -0.50184172 1.2854064
0.50860864 -0.50323635 1.2915699
0.49452206 -0.49887946 1.2827306
0.48552188 -0.49958229 1.2869883
0.47487622 -0.49858612 1.2867649
0.46394488 -0.49724233 1.2855724
0.45677343 -0.49995679 1.2949535
0.44555023 -0.49825802 1.2927226
0.43943217 -0.50231963 1.3055749
0.43344501 -0.50671864 1.3193005
0.42359242 -0.50669795 1.3213527
0.40734792 -0.49884871 1.3026692
0.39953184 -0.50119013 1.3108395
0.38923827 -0.50046307 1.3108468
0.3797417 -0.50074971 1.3134888
0.36569545 -0.49489444 1.2997617
0.35898256 -0.49891511 1.3122236
0.34948391 -0.49917969 1.3146564
0.34066731 -0.50046134 1.3197553
0.33134532 -0.50105405 1.3229735
0.32089937 -0.49993151 1.3215594
0.31240711 -0.50187755 1.3283054
0.29991692 -0.49731955 1.3175813
0.29019338 -0.49719864 1.3186877
0.2820158 -0.49980918 1.3270819
0.27186811 -0.49898982 1.3262206
0.26228818 -0.49919048 1.3280517
0.25269687 -0.49938411 1.3298169
0.24309465 -0.49957064 1.3315163
0.23332158 -0.49940705 1.3322237
0.22385888 -0.49992234 1.3347163
0.21628459 -0.50489277 1.3492044
0.20654988 -0.50505215 1.3506527
0.1965386 -0.50451767 1.3501753
0.18438347 -0.49813509 1.3338085
0.1751239 -0.49930179 1.3378326
0.16262802 -0.49083745 1.3156952
0.15367438 -0.49267602 1.3214407
0.14323924 -0.48969379 1.3140578
0.1348902 -0.49392629 1.3262173
0.12524088 -0.49368092 1.3261733
0.11616364 -0.49583691 1.3326107
0.10685343 -0.49729797 1.337117
0.09573593 -0.4898029 1.3172127
0.086362265 -0.49056053 1.3197092
0.076904163 -0.49096686 1.3212051
0.0675238 -0.4920547 1.3245119
0.058059815 -0.49279109 1.3268172
0.04853265 -0.49317601 1.32812
0.038989972 -0.49355373 1.3293577
0.029452723 -0.4942686 1.3314689
0.019762876 -0.49187618 1.3250668
0.010208671 -0.49154314 1.3242306
0.00065755739 -0.48396909 1.3036141
-0.0087424163 -0.48431051 1.3045253
-0.018129565 -0.4839558 1.3034946
-0.027561309 -0.48462737 1.3052157
-0.036887202 -0.4835695 1.3021795
-0.046435017 -0.48525992 1.3065863
-0.056285411 -0.48900908 1.3165541
-0.065214999 -0.48483062 1.3048841
-0.074935332 -0.48684329 1.3100297
-0.084195428 -0.48575002 1.3066738
-0.092084885 -0.47776559 1.2845247
-0.095793694 -0.45153615 1.2127216
-0.10246868 -0.4425135 1.1877117
-0.11095118 -0.44208845 1.186046
-0.11690439 -0.43236995 1.1590949
-0.13075127 -0.45119253 1.2096196
-0.13469335 -0.43561834 1.1667097
-0.14514732 -0.44170046 1.1825391
-0.15116984 -0.43437085 1.1619554
-0.16018894 -0.43597111 1.1655443
-0.16780588 -0.43378612 1.1588399
-0.17631239 -0.43399969 1.1585908
-0.1867238 -0.43866891 1.1703435
-0.19288348 -0.43337792 1.1551334
-0.2036162 -0.43837467 1.1676689
-0.20972641 -0.43341768 1.1533
-0.2204732 -0.43805543 1.1647621
-0.22691743 -0.43411753 1.1530772
-0.23636356 -0.43599889 1.1570189
-0.24626279 -0.43855712 1.162727
-0.25387079 -0.43700039 1.1573358
-0.26346886 -0.43885925 1.1610675
-0.26953197 -0.43489778 1.1491603
-0.28111878 -0.43981892 1.160993
-0.28726548 -0.43618968 1.1499093
-0.29766735 -0.43904442 1.1561077
-0.30460402 -0.43677145 1.1485789
-0.31291646 -0.43654084 1.1464585
-0.32397586 -0.44005367 1.1542467
-0.32950071 -0.43606147 1.1420454
-0.33935505 -0.43785548 1.1451672
-0.34981307 -0.44032171 1.1500112
-0.35897538 -0.44107822 1.1502738
-0.37014335 -0.44420648 1.1567448
-0.37678999 -0.44188979 1.1488007
-0.38778391 -0.44466114 1.1542153
-0.39192101 -0.43962049 1.1390469
-0.4011119 -0.44034272 1.1389866
-0.41505116 -0.44613883 1.1521538
-0.42373589 -0.44616538 1.1501505
-0.43175954 -0.44550872 1.1463206
-0.4404203 -0.44552234 1.1441963
-0.44873434 -0.44519144 1.1411319
-0.45772263 -0.44552931 1.1397595
-0.46954057 -0.44855791 1.1453012
-0.47715214 -0.44753096 1.1402928
-0.48544908 -0.44717208 1.1369715
-0.49372512 -0.44680688 1.1335922
-0.50273561 -0.44710752 1.13188
-0.51520693 -0.4504236 1.1378394
-0.52232671 -0.44902834 1.1316798
-0.52899003 -0.44729307 1.1246238
-0.5388025 -0.44823357 1.1243466
-0.54904926 -0.4494997 1.1248386
-0.55850309 -0.45008722 1.1235521
-0.57386327 -0.45534322 1.1339967
-0.57915419 -0.45257127 1.1241155
-0.58823299 -0.45279789 1.1217543
-0.60477602 -0.4586789 1.1335077
-0.61172605 -0.4572193 1.1267986
-0.62177098 -0.45808145 1.1258475
-0.62772089 -0.45594501 1.1173884
-0.64330864 -0.46077102 1.1261625
-0.6426394 -0.45398024 1.1061242
-0.6516903 -0.45414689 1.1032752
-0.66890973 -0.45992562 1.1141615
-0.67658645 -0.45907721 1.1086903
-0.67584562 -0.45261359 1.0894789
-0.69230777 -0.45768884 1.0984006
-0.71196014 -0.46471792 1.1119393
-0.70889503 -0.45692819 1.0894911
-0.71018416 -0.45210287 1.0742652
-0.73579925 -0.46269223 1.0961019
-0.74015301 -0.45981771 1.0854893
-0.75931096 -0.46609911 1.0967257
-0.76736104 -0.46549436 1.0914409
-0.78027028 -0.4678171 1.0930588
-0.77839959 -0.46132684 1.0737866
0.79396874 -0.47347835 1.0743123
0.79207689 -0.47777507 1.0882056
0.79655635 -0.48605943 1.1113712
0.82390934 -0.50866014 1.1679339
0.81422019 -0.50865757 1.1720517
0.82403308 -0.52098495 1.2050048
0.79426885 -0.50828558 1.1792827
0.79176176 -0.51293111 1.1942163
0.77836025 -0.51054674 1.1925411
0.76855755 -0.51049256 1.1963118
0.75924027 -0.51076335 1.2008069
0.7474333 -0.5093447 1.2012212
0.73955858 -0.51060361 1.207981
0.72488707 -0.50714087 1.2033628
0.71745443 -0.50871748 1.2107919
0.70384896 -0.50590044 1.2075727
0.69311112 -0.50509501 1.2091413
0.67918521 -0.50191087 1.2048659
0.66897291 -0.50141937 1.2070625
0.66411459 -0.5049848 1.2191209
0.65735948 -0.50719142 1.2278458
0.6453104 -0.50531834 1.2265226
0.63459975 -0.50445253 1.2276071
0.62601703 -0.50527763 1.2328078
0.61240858 -0.50200868 1.2278293
0.6030007 -0.50213403 1.2311876
0.59277177 -0.50156873 1.2327787
0.58334786 -0.50167722 1.2359935
0.57703823 -0.50451213 1.2459763
0.56138235 -0.49913326 1.2353586
0.55121231 -0.49853057 1.2366256
0.54515159 -0.50168842 1.2473011
0.53201091 -0.49832729 1.2415181
0.52366304 -0.49941495 1.2468942
0.51420653 -0.49946597 1.2496064
0.49814013 -0.49297753 1.2356737
0.49117187 -0.49541661 1.2443272
0.48276764 -0.49647456 1.2494369
0.47398901 -0.49718201 1.2536128
0.46485519 -0.49753809 1.2568477
0.45538568 -0.49754223 1.259135
0.44621867 -0.49788409 1.2622399
0.43733567 -0.49856457 1.2661692
0.4284212 -0.49923855 1.2700385
0.42005619 -0.50059789 1.2756319
0.41106704 -0.50125927 1.2793845
0.40371212 -0.50399244 1.2884531
0.39326876 -0.502909 1.2876056
0.38047862 -0.4986957 1.2785794
0.36964685 -0.49689919 1.275753
0.36038679 -0.49717665 1.2782617
0.35013056 -0.4960576 1.2770857
0.34229815 -0.49840584 1.2848998
0.33506978 -0.50179249 1.2953943
0.32409877 -0.49960864 1.2912931
0.31780779 -0.50472528 1.306247
0.30664217 -0.50217795 1.3010921
0.29701066 -0.50205988 1.3022499
0.28817773 -0.50332868 1.3070029
0.27948609 -0.50494009 1.3126161
0.2679331 -0.50131261 1.3043978
0.26208934 -0.50849402 1.324597
0.24886577 -0.50135905 1.3070222
0.23940897 -0.50154608 1.3086963
0.22914115 -0.49997893 1.305689
0.22046462 -0.50189865 1.3118486
0.20921479 -0.49786866 1.3022236
0.19979821 -0.49802566 1.3036249
0.19050659 -0.4985255 1.3058889
0.18093929 -0.49831834 1.3062336
0.17209996 -0.50020415 1.3120859
0.16147976 -0.49683169 1.3039345
0.15334274 -0.50115502 1.3161745
0.14232573 -0.4960151 1.3032236
0.13290983 -0.49612117 1.304166
0.12366255 -0.496921 1.306909
0.11293326 -0.49140471 1.2927939
0.10263377 -0.486931 1.2813981
0.094385341 -0.49226597 1.2960807
0.084963813 -0.49198461 1.2957602
0.075659677 -0.49239737 1.2972447
0.06581948 -0.48894477 1.2883779
0.056920681 -0.49249995 1.2981524
0.047648795 -0.49359271 1.3013173
0.038225997 -0.49327514 1.3006753
0.028507233 -0.48768741 1.2859255
0.01941582 -0.49261802 1.2991974
0.010036425 -0.49262944 1.2992983
0.00065658527 -0.49263355 1.2993349
-0.0087232823 -0.49263042 1.2993071
-0.01805119 -0.4912166 1.29547
-0.027148696 -0.48663789 1.2831436
-0.036491372 -0.48766574 1.2857342
-0.045707867 -0.48693237 1.283581
-0.055133268 -0.48829654 1.286979
-0.063730285 -0.48298895 1.2725399
-0.073659964 -0.48784623 1.285162
-0.082342193 -0.48427895 1.2752799
-0.086644657 -0.45826557 1.2055563
-0.096158117 -0.46205154 1.2152039
-0.10820249 -0.47634488 1.2527754
-0.11103889 -0.45102566 1.1848562
-0.11690796 -0.44077572 1.1570389
-0.12786309 -0.44979027 1.1804242
-0.13246596 -0.43673012 1.1450864
-0.14300491 -0.44362772 1.1627481
-0.15045702 -0.44071403 1.1543072
-0.15918387 -0.44164482 1.1560324
-0.16767807 -0.44186914 1.1558406
-0.17617814 -0.44208673 1.1555895
-0.18424585 -0.44124901 1.1525028
-0.19273685 -0.4414539 1.1521358
-0.20091426 -0.44095346 1.1498628
-0.20940135 -0.44114554 1.1493791
-0.21840969 -0.44237855 1.1515992
-0.22674541 -0.44220823 1.1500731
-0.23414363 -0.44028723 1.1438963
-0.24338698 -0.4418487 1.1468484
-0.25228816 -0.44270542 1.1478983
-0.26060212 -0.44250959 1.1461385
-0.27186915 -0.44718343 1.1571059
-0.28025171 -0.44697288 1.1552111
-0.28907174 -0.44745198 1.1550784
-0.29744288 -0.44722873 1.153065
-0.30485001 -0.44560868 1.1473652
-0.31463492 -0.44745809 1.1506746
-0.32022128 -0.44339624 1.1385441
-0.33285382 -0.44904917 1.1516471
-0.34173664 -0.44948673 1.1511306
-0.34819937 -0.4467977 1.1424644
-0.35870552 -0.44930151 1.1472121
-0.36845022 -0.45075715 1.1491885
-0.37448114 -0.44770655 1.1394846
-0.38009778 -0.44430742 1.1288645
-0.38890702 -0.4447071 1.1279966
-0.39988506 -0.44751677 1.1332674
-0.40844122 -0.44755536 1.1313689
-0.41956258 -0.4503459 1.1364644
-0.42815936 -0.45036903 1.1344243
-0.43608257 -0.44969669 1.1305671
-0.44635588 -0.4514271 1.1327829
-0.45287403 -0.449366 1.1253122
-0.46283752 -0.45073661 1.1265115
-0.47140762 -0.45072505 1.1241573
-0.47960445 -0.4503634 1.120875
-0.49038109 -0.45239437 1.1235757
-0.49933487 -0.45270264 1.1218812
-0.50713998 -0.45197675 1.1175461
-0.52037174 -0.45603076 1.1251283
-0.52343875 -0.45118991 1.1104242
-0.53960162 -0.45761141 1.1237675
-0.54944992 -0.4585588 1.1233947
-0.55724972 -0.45779374 1.1187224
-0.5662747 -0.45804322 1.116521
-0.573165 -0.45658457 1.1100605
-0.58561993 -0.45953625 1.1144161
-0.59290326 -0.45840243 1.1086704
-0.60013568 -0.45726278 1.1028794
-0.606866 -0.45577863 1.0962182
-0.62129927 -0.46003994 1.1035061
-0.62244999 -0.45448452 1.0868815
-0.64073658 -0.46142167 1.1005012
-0.64928693 -0.46125451 1.0968477
-0.65877986 -0.46175253 1.0947506
-0.66681832 -0.46123132 1.0901586
-0.68073201 -0.46473476 1.0951469
-0.69176549 -0.46620709 1.0952001
-0.69326299 -0.46129704 1.0800303
-0.6991635 -0.4594028 1.0720296
-0.71219927 -0.46218586 1.0750496
-0.71906257 -0.46094424 1.0685185
-0.72797507 -0.46103039 1.0650754
-0.74858814 -0.46843621 1.0786837
-0.75329399 -0.46583065 1.0688279
-0.75843859 -0.46355397 1.0597341
-0.74591279 -0.45065382 1.0260841
0.78997952 -0.48006928 1.0664479
0.78372824 -0.48174039 1.0741742
0.79046077 -0.49152386 1.1002994
0.81623453 -0.51351678 1.1543509
0.80236697 -0.51079673 1.1522171
0.78540999 -0.50602067 1.1452783
0.77120298 -0.5029217 1.1420785
0.76688272 -0.50627315 1.1536797
0.7527439 -0.5031454 1.1502746
0.74777132 -0.50614291 1.1610123
0.73819625 -0.50606203 1.1645696
0.73156506 -0.50802338 1.1728548
0.72095829 -0.50723922 1.1746792
0.71373093 -0.50884348 1.1820649
0.70168424 -0.50700879 1.181308
0.6962558 -0.50997138 1.1918336
0.67820454 -0.50364232 1.1802919
0.67224932 -0.5062443 1.1898791
0.66032434 -0.50436068 1.1887432
0.65067959 -0.50418955 1.1916335
0.63883257 -0.50228167 1.1903038
0.62964088 -0.50243592 1.193864
0.62128741 -0.50327379 1.1990271
0.60910302 -0.50098652 1.196591
0.60695207 -0.50700915 1.2142321
0.59885246 -0.50817478 1.2200876
0.58022565 -0.50030088 1.2038772
0.58051687 -0.50874835 1.227397
0.56292069 -0.50154006 1.2126303
0.55095369 -0.4991881 1.2096511
0.54700541 -0.5041455 1.2245752
0.53022128 -0.4972392 1.2102605
0.53196818 -0.50777489 1.2389089
0.51498961 -0.50049466 1.2235166
0.50674462 -0.50158995 1.228776
0.49845251 -0.50267905 1.2339817
0.48636466 -0.49990854 1.2295377
0.47470358 -0.4974767 1.2258631
0.46049711 -0.49222699 1.215073
0.45645186 -0.49784601 1.2314059
0.44651693 -0.49714139 1.2318761
0.43845621 -0.49853781 1.2375726
0.42942992 -0.49887317 1.2405614
0.42008877 -0.49884963 1.2425997
0.41103244 -0.49917078 1.2454606
0.40054014 -0.49772254 1.2437997
0.39148113 -0.49802873 1.2465247
0.38186365 -0.49762213 1.2473955
0.37251988 -0.4975608 1.2490932
0.36214131 -0.49607891 1.2471274
0.35332066 -0.49670926 1.2504869
0.34398192 -0.49662563 1.2519815
0.33416429 -0.49582678 1.2516007
0.32622752 -0.49785271 1.2583952
0.32159454 -0.50518751 1.2787555
0.30748901 -0.49763566 1.2609326
0.3053439 -0.50957292 1.2930608
0.29183915 -0.502711 1.276885
0.28197336 -0.50186938 1.2761163
0.27406329 -0.5045706 1.2844226
0.26493186 -0.50513548 1.2871871
0.25613531 -0.50640416 1.2917244
0.24642242 -0.50588906 1.2916123
0.23522583 -0.50216538 1.283154
0.22560394 -0.5016337 1.2828935
0.21783951 -0.50536501 1.293627
0.20846562 -0.50553149 1.2950884
0.20006403 -0.50818354 1.3029523
0.18808798 -0.5015679 1.2867199
0.17800573 -0.49957353 1.2824229
0.17064266 -0.50541204 1.2984354
0.15839791 -0.496629 1.2763888
0.14947602 -0.4978193 1.2802268
0.14020643 -0.49793285 1.281219
0.13055556 -0.49661219 1.2784297
0.12060355 -0.49385628 1.2718517
0.1118795 -0.49608871 1.2782301
0.10277537 -0.49688688 1.280827
0.093102708 -0.49482194 1.2759091
0.083929442 -0.49524856 1.2774472
0.075277641 -0.49923912 1.2882478
0.065720983 -0.49750879 1.2840669
0.055863544 -0.49255639 1.2714212
0.047104046 -0.49724039 1.2839063
0.038196176 -0.50227517 1.2972677
0.028505486 -0.49694267 1.2834903
0.019124309 -0.49446061 1.2771165
0.0098928791 -0.49482933 1.2781498
0.00064625987 -0.49411887 1.2763178
-0.0085985186 -0.49483034 1.2781587
-0.017715015 -0.49124721 1.268729
-0.02683414 -0.49015787 1.265775
-0.035859562 -0.48834687 1.2608914
-0.044882495 -0.48724347 1.2578145
-0.054140441 -0.48863333 1.2612088
-0.063079394 -0.48715851 1.2570752
-0.072491363 -0.48924807 1.2622076
-0.079835303 -0.47847533 1.2337146
-0.086643413 -0.46698436 1.2033216
-0.095937446 -0.46976867 1.2101486
-0.10199238 -0.45755503 1.1778162
-0.10888346 -0.45069155 1.159415
-0.11570274 -0.4445377 1.1428379
-0.12408204 -0.44480038 1.1429458
-0.13321221 -0.4475528 1.1494931
-0.14255553 -0.45065391 1.1568989
-0.1497432 -0.44697458 1.1466268
-0.15956458 -0.45113027 1.1566821
-0.16701746 -0.44850847 1.1490855
-0.17437041 -0.44588166 1.1414442
-0.18599965 -0.45393071 1.1614499
-0.19258773 -0.44951135 1.1490821
-0.20203157 -0.45184824 1.1541796
-0.20874254 -0.44813073 1.1435672
-0.21841329 -0.45080906 1.1494565
-0.22621277 -0.44956952 1.1451775
-0.23526074 -0.45081112 1.1472619
-0.24377526 -0.45097998 1.1465341
-0.24991032 -0.44688269 1.1347833
-0.25999141 -0.44987839 1.1412493
-0.26806325 -0.44931865 1.1385254
-0.27676478 -0.44981626 1.1384749
-0.28458199 -0.44888973 1.1347305
-0.29282323 -0.44866583 1.1327473
-0.30105186 -0.44843569 1.1307073
-0.31195259 -0.4520905 1.1385427
-0.319224 -0.45043156 1.1327653
-0.32745808 -0.45018122 1.1305424
-0.33725902 -0.45204359 1.1336486
-0.3441537 -0.45001474 1.1268215
-0.3526274 -0.45009816 1.1253196
-0.36336106 -0.45299509 1.1308937
-0.37274858 -0.45412025 1.1319247
-0.38217133 -0.45523724 1.1328826
-0.3880055 -0.45212391 1.1231344
-0.39649579 -0.45217246 1.1213176
-0.40561119 -0.45291698 1.1212031
-0.41506824 -0.4540047 1.1218982
-0.42455813 -0.45508409 1.1225182
-0.43508127 -0.45720693 1.1256882
-0.44159451 -0.45511529 1.1182953
-0.45010322 -0.45512038 1.1160911
-0.45825255 -0.45476866 1.1129571
-0.46853456 -0.45650768 1.1149592
-0.47923619 -0.4585861 1.1177374
-0.48740572 -0.45821097 1.1143997
-0.49366683 -0.45608574 1.1067152
-0.50137901 -0.45535043 1.1024212
-0.51178521 -0.45704556 1.1040436
-0.5174917 -0.45455691 1.0953785
-0.52792662 -0.45623493 1.0968554
-0.53963625 -0.45894375 1.1007752
-0.55474645 -0.4644146 1.1113193
-0.55910909 -0.46085814 1.0999056
-0.5693078 -0.462147 1.1001867
-0.57564908 -0.46031281 1.0928875
-0.58893245 -0.4640021 1.0988306
-0.59833282 -0.46456945 1.0972044
-0.61269766 -0.46892005 1.1045622
-0.60666043 -0.4577536 1.0748594
-0.61594856 -0.45830065 1.0730814
-0.62758559 -0.46055639 1.0752988
-0.63359731 -0.45867884 1.067681
-0.65585667 -0.46845657 1.0874854
-0.65073633 -0.45867786 1.0612048
-0.66592634 -0.46328315 1.0686789
-0.676283 -0.46445101 1.068024
-0.68918264 -0.4673135 1.071249
-0.69809145 -0.46743217 1.0680281
-0.70956433 -0.46924353 1.0686724
-0.71483529 -0.46695939 1.0598155
-0.72475141 -0.46772814 1.0579568
-0.73733747 -0.47018105 1.059895
-0.7247203 -0.45669407 1.0254241
-0.74749351 -0.46556327 1.0418986
-0.75462693 -0.46459946 1.0359373
0.77156073 -0.47763696 1.0388474
0.78141981 -0.48929602 1.0685285
0.78273034 -0.49581105 1.086918
0.78703934 -0.50440091 1.1099966
0.7788074 -0.50506216 1.115414
0.77475023 -0.50847936 1.1269885
0.77577448 -0.51535547 1.1463674
0.76367342 -0.51357436 1.1462232
0.75110567 -0.51143098 1.1451837
0.73002869 -0.50336611 1.130585
0.7311185 -0.51057488 1.1507058
0.73047686 -0.51674581 1.1685059
0.70675319 -0.50653583 1.1487006
0.70161933 -0.50955486 1.1591995
0.6897248 -0.50767916 1.158376
0.67084849 -0.50054276 1.1452807
0.66701317 -0.50458658 1.1580423
0.65754491 -0.50442308 1.1609982
0.64987433 -0.50565362 1.1671644
0.6417051 -0.50652617 1.1724594
0.62559235 -0.5010621 1.1628172
0.62134635 -0.50508136 1.1754174
0.61652499 -0.5087474 1.1871843
0.59978169 -0.50253719 1.1755422
0.58821988 -0.50054234 1.1737924
0.57957822 -0.50100845 1.1778324
0.5697028 -0.50040597 1.1792787
0.56380391 -0.50333369 1.1891184
0.55311006 -0.50200695 1.1887376
0.54629505 -0.50421542 1.1967932
0.53221262 -0.49967676 1.1885672
0.52534413 -0.50187069 1.1965027
0.51619732 -0.50192755 1.1992412
0.50165009 -0.49663997 1.1889718
0.49469596 -0.49881309 1.1967313
0.48453617 -0.4977749 1.1966453
0.47917351 -0.50171959 1.2086583
0.46898466 -0.50066656 1.2084445
0.46046573 -0.50138986 1.2125232
0.45030615 -0.50031972 1.2121603
0.44080839 -0.49995571 1.2134761
0.43162596 -0.49994147 1.2156022
0.42152989 -0.4988454 1.2150123
0.41146666 -0.49774045 1.214344
0.40143681 -0.49662662 1.2135977
0.3931416 -0.49765679 1.2181097
0.38452685 -0.49832192 1.2216765
0.37831837 -0.50221366 1.2332236
0.36932319 -0.5025081 1.2357954
0.35593078 -0.49668142 1.2230594
0.34600899 -0.49551901 1.2218823
0.34248912 -0.50370938 1.244036
0.3284215 -0.49641085 1.2274191
0.31971264 -0.49702686 1.230549
0.31570935 -0.50520903 1.252627
0.30878022 -0.50906253 1.2638305
0.29682425 -0.50461048 1.2541146
0.28955257 -0.50809157 1.2643075
0.28015822 -0.50795567 1.265353
0.27018675 -0.50672793 1.2635956
0.26062834 -0.5062151 1.2635914
0.25108489 -0.50569439 1.2635187
0.24294113 -0.50806099 1.2707063
0.23104589 -0.50245798 1.2576662
0.22414748 -0.50770754 1.2720761
0.21490891 -0.50788188 1.273582
0.20566101 -0.50804889 1.2750239
0.19640419 -0.50820863 1.2764024
0.18607098 -0.50546044 1.2703384
0.17685039 -0.50560474 1.2715825
0.16702086 -0.50392789 1.2681427
0.15565959 -0.49716228 1.2516831
0.14679016 -0.49800873 1.2545701
0.13738602 -0.49703291 1.2527658
0.12848426 -0.49786508 1.2555299
0.11920204 -0.49723762 1.2545239
0.11018245 -0.49769241 1.2562376
0.10099718 -0.4974134 1.2560325
0.091686539 -0.49640027 1.2539054
0.081807181 -0.49174505 1.2424167
0.074249499 -0.50162119 1.2680573
0.064254627 -0.49549675 1.2527179
0.055616852 -0.49954382 1.2633644
0.046559505 -0.5006755 1.2665069
0.037297238 -0.49961814 1.2640008
0.028052863 -0.49818975 1.2604995
0.018971065 -0.49966326 1.2643863
0.0097137364 -0.49494708 1.2523751
0.00063454109 -0.49422389 1.2505475
-0.0084304083 -0.49422076 1.2505209
-0.017430618 -0.49239212 1.2457749
-0.026167933 -0.48691991 1.2316546
-0.035044778 -0.48616812 1.2295825
-0.044649623 -0.49377218 1.2488624
-0.052792527 -0.48537061 1.227119
-0.061643112 -0.4849613 1.2257963
-0.072010934 -0.49508646 1.2513864
-0.075604849 -0.46158743 1.165329
-0.083993427 -0.46116018 1.1638528
-0.093749017 -0.46763 1.1799668
-0.10254759 -0.46864161 1.1820803
-0.109831 -0.46310794 1.1674325
-0.11561124 -0.45248556 1.1397651
-0.1237851 -0.45202699 1.1380184
-0.13225845 -0.45265099 1.1389931
-0.14097795 -0.45399392 1.1417584
-0.14890908 -0.45278984 1.1379912
-0.15754963 -0.45375624 1.1397123
-0.16542767 -0.45253968 1.1358365
-0.17395467 -0.45312983 1.1365172
-0.18395822 -0.45733696 1.1463428
-0.20218745 -0.48073521 1.2048224
-0.20123681 -0.45848015 1.1473793
-0.2075852 -0.45397288 1.1349621
-0.21669264 -0.45561442 1.1380906
-0.22442697 -0.4543542 1.1338305
-0.23285317 -0.45453471 1.1331758
-0.23936446 -0.45109397 1.1233373
-0.25030941 -0.45595947 1.1344216
-0.25958282 -0.45756403 1.1372235
-0.26531643 -0.45302385 1.124513
-0.27349719 -0.45281094 1.1226627
-0.28256392 -0.4540343 1.1243769
-0.2932871 -0.45777294 1.1323485
-0.29939207 -0.45429593 1.1221856
-0.31073329 -0.45873755 1.1318055
-0.31847394 -0.45776951 1.1278433
-0.32720244 -0.45823467 1.1274191
-0.33488956 -0.45725468 1.1233498
-0.34415489 -0.45842469 1.1245912
-0.35318071 -0.4592275 1.1248693
-0.36392531 -0.46217576 1.1304168
-0.37043524 -0.45973432 1.1225569
-0.37626189 -0.45657241 1.1128927
-0.38468572 -0.45663106 1.1111566
-0.39526233 -0.45918816 1.11553
-0.40560928 -0.46137729 1.1189333
-0.41410291 -0.46141198 1.1169863
-0.42357263 -0.46251112 1.1176025
-0.43107435 -0.46146026 1.1129078
-0.4395512 -0.46147373 1.1107761
-0.44871366 -0.46219283 1.1103188
-0.45754203 -0.46254757 1.1089246
-0.46530017 -0.46182713 1.1048746
-0.47484916 -0.46287814 1.1050757
-0.48516914 -0.4646306 1.1069161
-0.48762277 -0.45891923 1.090704
-0.50213522 -0.46455812 1.1018046
-0.51021445 -0.46415636 1.0983056
-0.51589757 -0.46162373 1.0896654
-0.52871573 -0.46545425 1.0962059
-0.53594732 -0.46432298 1.090837
-0.54437256 -0.46424511 1.0879402
-0.55824637 -0.46874461 1.0958517
-0.56672561 -0.46864676 1.0927932
-0.57562375 -0.46889293 1.0905027
-0.58364356 -0.468427 1.0864893
-0.59829956 -0.47322339 1.0947828
-0.59735274 -0.46571815 1.0741895
-0.60663033 -0.46628341 1.0724783
-0.61637783 -0.46718916 1.0715079
-0.62333637 -0.46598518 1.0655874
-0.63071632 -0.46512443 1.0604331
-0.63853478 -0.46460581 1.0560364
-0.64778 -0.46512532 1.0539902
-0.66587543 -0.47190332 1.0662388
-0.66429436 -0.46474177 1.0464964
-0.67252171 -0.46453667 1.0426592
-0.68021947 -0.46397558 1.0379741
-0.70640653 -0.47588387 1.0614719
-0.71424353 -0.4752906 1.0565531
-0.730986 -0.48056623 1.0647924
-0.74629062 -0.4847821 1.070534
-0.75473309 -0.48449361 1.0661123
-0.76423472 -0.4848839 1.0631623
-0.77318323 -0.48491833 1.059375
0.77809823 -0.49051905 1.0453403
0.7944634 -0.50658786 1.0841
0.78857595 -0.50867593 1.0926164
0.78690439 -0.51356441 1.1072438
0.77495301 -0.5117805 1.1072654
0.76883072 -0.5138495 1.1156963
0.75585777 -0.51133454 1.1139891
0.74449492 -0.5098601 1.1145053
0.73520082 -0.50978327 1.1180623
0.72690076 -0.51040256 1.1231254
0.71806812 -0.51065892 1.1273398
0.70724541 -0.50948834 1.1283088
0.69741911 -0.50901419 1.1307834
0.68615419 -0.50746346 1.1307738
0.67824733 -0.50838786 1.136304
0.66701806 -0.50681323 1.136122
0.65629101 -0.50558174 1.1366547
0.64833218 -0.50647813 1.1419872
0.63852906 -0.50593877 1.1439945
0.62161803 -0.49967033 1.1327831
0.61236304 -0.49946225 1.1354105
0.60570008 -0.50139356 1.1429315
0.60280102 -0.50654626 1.1578907
0.59635317 -0.50882941 1.1662004
0.58691651 -0.5085938 1.1686258
0.57870311 -0.50942755 1.1734965
0.57045174 -0.5102542 1.1783124
0.56097424 -0.50999331 1.1805393
0.54876626 -0.50719994 1.1767629
0.53818029 -0.50583661 1.1762774
0.52952081 -0.50626814 1.1799678
0.5189805 -0.5048852 1.1793214
0.50117379 -0.49625766 1.1614336
0.49119627 -0.49521005 1.161425
0.48301142 -0.49596438 1.1656504
0.47513968 -0.49707472 1.170686
0.46722218 -0.4981789 1.175671
0.45859131 -0.49855077 1.1788653
0.44764677 -0.49637204 1.1758947
0.4348428 -0.49200061 1.1675862
0.43100616 -0.49780449 1.1837031
0.42263886 -0.49851087 1.1875231
0.41363594 -0.49848202 1.1895252
0.40492395 -0.4988102 1.1923455
0.38982302 -0.49110442 1.1756376
0.38886422 -0.50127101 1.2022375
0.37868512 -0.49975267 1.2004409
0.37017617 -0.50041831 1.2039078
0.36058271 -0.49961442 1.2037479
0.34792194 -0.49441075 1.1927842
0.34021017 -0.496151 1.1987318
0.32998601 -0.49422237 1.1956551
0.32649323 -0.50254798 1.2176809
0.31274009 -0.49510497 1.2009736
0.31027916 -0.50562662 1.2283654
0.30131841 -0.50587237 1.2304668
0.29234472 -0.50611097 1.2325064
0.28356406 -0.50670993 1.2353908
0.27515638 -0.50803727 1.2400326
0.26534966 -0.50678408 1.2382519
0.2561419 -0.50662625 1.2391318
0.2490897 -0.51087767 1.2508945
0.23842451 -0.507761 1.2443513
0.23069477 -0.51089644 1.253274
0.22045365 -0.50849968 1.248415
0.21029505 -0.50609374 1.2434779
0.20183192 -0.50773484 1.2485613
0.19386719 -0.51084507 1.2572656
0.18232071 -0.50435704 1.2420069
0.17328587 -0.50450087 1.2432261
0.1644838 -0.5053758 1.2462264
0.1553075 -0.50513607 1.2464006
0.14571008 -0.50341159 1.2428187
0.13717529 -0.50537312 1.2484056
0.12810004 -0.50548071 1.2493148
0.11910614 -0.50595057 1.2510867
0.10864729 -0.49975955 1.2361351
0.099662714 -0.4998441 1.2368488
0.090673782 -0.49992144 1.237501
0.081439212 -0.49851218 1.2343829
0.072523087 -0.49894449 1.2358376
0.063449174 -0.49826008 1.2344481
0.054884441 -0.50200731 1.2441337
0.045609768 -0.49945849 1.2379797
0.03664333 -0.4998619 1.23919
0.027580118 -0.49877805 1.2366238
0.018762618 -0.50323719 1.2479291
0.0095917974 -0.49769822 1.2340916
0.00062703108 -0.49733233 1.2331976
-0.0082190614 -0.49066854 1.2164494
-0.017172161 -0.49398848 1.2247231
-0.025892977 -0.49064079 1.2162156
-0.03423081 -0.48358622 1.1983634
-0.043069553 -0.4850347 1.2018129
-0.05207824 -0.48758572 1.2079854
-0.060947016 -0.48827964 1.2094544
-0.070209555 -0.4915553 1.2173549
-0.075484462 -0.46930537 1.1612118
-0.083793513 -0.46850103 1.1588122
-0.092217855 -0.46842954 1.1582092
-0.098731853 -0.4594796 1.13533
-0.10698833 -0.45939606 1.1346251
-0.1148693 -0.4578279 1.1301652
-0.12328821 -0.45847026 1.1311976
-0.13194023 -0.45984432 1.134017
-0.14041431 -0.46047267 1.1349293
-0.14902799 -0.46146309 1.1367034
-0.15704571 -0.460601 1.1338116
-0.16397052 -0.45678085 1.1235067
-0.17214663 -0.45664495 1.1223544
-0.18177171 -0.46018988 1.130326
-0.20050314 -0.48547465 1.1923259
-0.20933482 -0.48567772 1.1918366
-0.20708837 -0.46119311 1.1299903
-0.21565954 -0.46175927 1.1303685
-0.22371206 -0.46121395 1.1279476
-0.23211195 -0.46139827 1.1272949
-0.23917341 -0.45900127 1.1202134
-0.24951521 -0.46284941 1.1285378
-0.25630513 -0.46007305 1.1204454
-0.26700613 -0.46427122 1.1295261
-0.27502134 -0.46368611 1.1267591
-0.28144193 -0.4605262 1.1176186
-0.2914384 -0.46323097 1.122866
-0.29773045 -0.46006104 1.1136374
-0.30609939 -0.46018514 1.1124603
-0.31571904 -0.46213338 1.1157048
-0.32796893 -0.46773264 1.1278176
-0.33541268 -0.46636891 1.1228545
-0.34064746 -0.46207538 1.1107179
-0.35262427 -0.46691385 1.1207917
-0.35940132 -0.46480221 1.1138999
-0.36552146 -0.46195653 1.1052008
-0.37478262 -0.46311888 1.1061877
-0.38287279 -0.46281505 1.1035773
-0.39156216 -0.46323311 1.1026689
-0.40245932 -0.46619114 1.1078334
-0.40928668 -0.46441028 1.1015317
-0.41800669 -0.46480531 1.1004258
-0.43073145 -0.46955055 1.1096964
-0.43954083 -0.46992692 1.1084316
-0.44662791 -0.46848249 1.1027734
-0.45260218 -0.46594602 1.0944836
-0.46457097 -0.46956083 1.1007969
-0.46863949 -0.46520406 1.0881207
-0.48292837 -0.4709675 1.0993998
-0.48798645 -0.46768522 1.0892106
-0.49713713 -0.46837017 1.0883608
-0.50902712 -0.47156996 1.0933727
-0.51271629 -0.46719196 1.0805302
-0.52788937 -0.47325066 1.0921159
-0.52899516 -0.46670604 1.0741657
-0.54269272 -0.47130141 1.0821898
-0.54688299 -0.4676258 1.0709029
-0.55349416 -0.46610031 1.0645975
-0.56220305 -0.46636054 1.0623938
-0.57178634 -0.46732771 1.0617728
-0.57917249 -0.46649727 1.056964
-0.58741981 -0.46637419 1.053744
-0.60476702 -0.47337744 1.0667737
-0.60340726 -0.46574682 1.0463102
-0.61534268 -0.46844679 1.0493848
-0.63019651 -0.47326538 1.0571826
-0.63848639 -0.47309169 1.0535916
-0.64675796 -0.47290921 1.0499402
-0.66826797 -0.48228562 1.0677156
-0.68560022 -0.48844504 1.0781145
-0.70110917 -0.49316585 1.0851717
-0.70354062 -0.48868477 1.0716481
-0.70272732 -0.48208845 1.0534563
-0.71260065 -0.48289499 1.0516771
-0.72406095 -0.48474443 1.0521404
-0.72812939 -0.48166022 1.0417054
-0.71007758 -0.46418816 0.99980861
-0.7397176 -0.47793698 1.0261806
-0.67828166 -0.43320137 0.92529905
0.73699063 -0.47297272 0.98694855
0.79760224 -0.51774985 1.0858676
0.77540529 -0.50918901 1.0715748
0.78245866 -0.51986086 1.0983109
0.7689653 -0.51697296 1.0960135
0.78393847 -0.53338391 1.135262
0.75780642 -0.52188635 1.1142961
0.75054234 -0.52325958 1.1210711
0.73864055 -0.5213933 1.1207616
0.73130977 -0.52274722 1.1274201
0.7219317 -0.52265376 1.1308773
0.70664525 -0.51822484 1.1247488
0.6740061 -0.50078642 1.0898025
0.6659053 -0.50135827 1.0944442
0.65872079 -0.50264478 1.1006353
0.65382206 -0.5057345 1.1108141
0.64788592 -0.50809646 1.1193624
0.63091201 -0.50174683 1.1083833
0.62944275 -0.50772232 1.1249611
0.61888027 -0.50642985 1.1251984
0.61185551 -0.50803691 1.1319218
0.60260546 -0.50781655 1.1344805
0.59292573 -0.50722206 1.1361406
0.58535653 -0.50844246 1.1418781
0.57400948 -0.50636822 1.1400654
0.56353772 -0.50501269 1.1398265
0.55511153 -0.50547612 1.1436971
0.54309803 -0.50263464 1.1399298
0.53428841 -0.50271314 1.1428126
0.52891934 -0.50608635 1.1532581
0.51286167 -0.49917236 1.1398839
0.50593728 -0.50106138 1.1468108
0.49821112 -0.50220954 1.1519885
0.49007958 -0.50298345 1.1562593
0.48120907 -0.50301337 1.1587551
0.4664433 -0.49676606 1.1465222
0.45936292 -0.49862093 1.1531733
0.44954252 -0.49751604 1.1528456
0.44106275 -0.49788031 1.1559187
0.43256393 -0.49823746 1.1589324
0.42404637 -0.49858746 1.1618867
0.41674441 -0.50041199 1.1682861
0.40635252 -0.49852496 1.1658601
0.39779401 -0.49885327 1.1686313
0.38835019 -0.49806109 1.1686959
0.37921104 -0.49763191 1.1695732
0.36731511 -0.49347875 1.1615206
0.36150119 -0.49749327 1.1729017
0.35053203 -0.49443647 1.1673512
0.3445527 -0.49844167 1.178652
0.3359209 -0.49871948 1.1809932
0.32996333 -0.50308949 1.1931218
0.3214699 -0.50372833 1.1962582
0.31225535 -0.5032413 1.1966418
0.3032783 -0.50311971 1.1978588
0.29473811 -0.50373745 1.2008148
0.28680822 -0.50546926 1.2064227
0.27840298 -0.50644791 1.2101722
0.2695618 -0.50667214 1.2120546
0.26186338 -0.50913376 1.2193192
0.25426111 -0.51196426 1.2274466
0.24583898 -0.51329219 1.2318912
0.23650314 -0.51274103 1.2317262
0.22751571 -0.51293129 1.2333189
0.21756074 -0.51086551 1.2293702
0.20905256 -0.51216519 1.2335755
0.19947071 -0.51083302 1.2313176
0.19119166 -0.51286918 1.2372372
0.181639 -0.51152152 1.2348487
0.17048466 -0.50528544 1.2204551
0.16146834 -0.50504655 1.2206746
0.15279853 -0.50592697 1.2235911
0.14366838 -0.5052979 1.2227674
0.13475879 -0.50541252 1.2237219
0.12574978 -0.50514412 1.2236935
0.11587923 -0.50110894 1.2143768
0.10751458 -0.50345683 1.2206795
0.099581175 -0.50843072 1.2333938
