# .PCD v0.7 - Point Cloud Data file format
VERSION 0.7
FIELDS x y z
SIZE 4 4 4
TYPE F F F
COUNT 1 1 1
WIDTH 1492
HEIGHT 1
VIEWPOINT 0 0 0 1 0 0 0
POINTS 1492
DATA ascii
0.30827251 0.69467402 2.0374317
0.28930271 0.68440926 2.008513
0.27458489 0.68365461 2.0076246
0.25929052 0.68130124 2.0019305
0.24854584 0.69132739 2.0328355
0.23372018 0.69054359 2.0316598
0.21952951 0.69165641 2.0360372
0.20510072 0.69212389 2.0384326
0.18758573 0.68145156 2.007688
0.1760955 0.69271046 2.0419834
0.15819626 0.6785149 2.0006063
0.14615504 0.68912041 2.032845
0.13068733 0.68412733 2.0186579
0.11607704 0.68294162 2.0157163
0.10113601 0.67919922 2.0050991
0.087449946 0.68404025 2.0199482
0.07311707 0.68473363 2.0223918
0.058399372 0.68127835 2.012419
0.044341169 0.68577182 2.0260377
0.029843407 0.68452448 2.0224998
0.01541948 0.6842221 2.0217068
0.00099748047 0.67658645 1.9990116
-0.013314724 0.67976606 2.0084496
-0.027605141 0.67911488 2.0064137
-0.041985396 0.68036377 2.0099673
-0.055995777 0.67650867 1.9982597
-0.070536911 0.6793291 2.0063548
-0.084360689 0.6754545 1.9944578
-0.098205693 0.67284358 1.9862577
-0.10997249 0.6584481 1.9429444
-0.11299244 0.60077053 1.7708954
-0.12176862 0.58223301 1.715229
-0.13430347 0.58341521 1.7181355
-0.14688584 0.58458841 1.7209539
-0.15838937 0.58161849 1.7114102
-0.17517576 0.59708154 1.7565174
-0.20200424 0.64240867 1.8901041
-0.22753344 0.67817247 1.9951388
-0.24493004 0.68690366 2.0198929
-0.25513214 0.67560923 1.985247
-0.27106059 0.67987096 1.9966098
-0.28503123 0.67904079 1.9928285
-0.30148092 0.68391377 2.0058362
-0.3194488 0.69162917 2.027148
-0.33114812 0.68569183 2.0080655
-0.34850663 0.69147909 2.0235116
-0.36127567 0.68806136 2.011739
-0.3756268 0.6878041 2.0092163
-0.38726726 0.68278688 1.9926244
-0.4024173 0.68409497 1.994574
-0.42166457 0.69203717 2.0159178
-0.43784642 0.69458562 2.021327
-0.45227405 0.69427651 2.0182776
-0.46965727 0.69838172 2.0280738
-0.47997466 0.6920498 2.0072649
-0.49904686 0.69834208 2.0232797
-0.51442575 0.6992538 2.0234885
-0.52816403 0.69794685 2.0171554
-0.53938884 0.69347918 2.0015647
-0.56501865 0.70727891 2.0389943
-0.57830042 0.70530975 2.0305002
-0.5801127 0.68980092 1.9827259
-0.60676372 0.70386374 2.0205417
-0.62204766 0.70438403 2.0190487
-0.63677561 0.70426524 2.0156322
-0.64974666 0.70225298 2.0066881
-0.66232878 0.69991916 1.9967619
-0.68117446 0.70416206 2.0056572
-0.70792514 0.71622181 2.0368338
-0.71113622 0.70445961 1.9996735
-0.72643268 0.70490551 1.9974118
-0.74896955 0.71221852 2.0146425
-0.76140302 0.70982563 2.0041044
-0.77543515 0.7089864 1.9979254
-0.79081249 0.70938557 1.9951876
-0.80902636 0.71226734 1.9993895
-0.83202839 0.71918279 2.0148675
-0.85236299 0.7235865 2.0231104
-0.86204827 0.71895403 2.0058179
-0.88101155 0.72208583 2.0102818
-0.90085691 0.72582191 2.0163195
-0.91065788 0.72147566 1.9996561
-0.92504305 0.72084433 1.9933196
-0.94988853 0.72825307 2.0092638
-0.96312255 0.72666556 2.0000784
-0.98127133 0.72877777 2.0010705
-1.0032878 0.73365325 2.0095797
-1.029335 0.7412836 2.0255256
-1.0478458 0.74333954 2.0259748
-1.0430733 0.72906119 1.9815708
-1.0542438 0.72617871 1.9684234
-1.0738811 0.72912741 1.9711248
-1.1170001 0.74771136 2.0161843
-1.1259843 0.74324667 1.9984318
-1.1277174 0.73418379 1.9682422
-1.1443232 0.7349177 1.9645053
-1.1686528 0.74052632 1.9737706
-1.1970823 0.74855089 1.9893366
-1.2183865 0.75196922 1.9923929
-1.2447971 0.75841093 2.00336
-1.2491772 0.75143725 1.9785407
-1.2727047 0.75601172 1.9843035
-1.2937933 0.75904244 1.9858381
-1.3029402 0.75507879 1.968859
-1.3325326 0.76291633 1.9827778
-1.3399439 0.75801903 1.9632375
-1.3687484 0.76519698 1.9751165
-1.3972464 0.7720384 1.9859143
-1.4105289 0.77041197 1.9746345
1.4323311 0.75592995 1.974915
1.4246086 0.7604894 1.9941348
1.399178 0.75559193 1.9882828
1.38419 0.75628477 1.997136
1.3686097 0.75666684 2.0050917
1.3529863 0.75703394 2.0129333
1.3367966 0.75708926 2.0198617
1.3278363 0.76129067 2.0378919
1.289462 0.74852252 2.0099957
1.2693009 0.7461378 2.0099816
1.2652429 0.75327909 2.035784
1.2405761 0.74817687 2.028182
1.2180437 0.7442444 2.023617
1.2038624 0.74537802 2.0328255
1.1881814 0.74560112 2.0394597
1.1611508 0.7386108 2.0260768
1.1469499 0.73970068 2.0348971
1.116596 0.73025727 2.0143733
1.1024781 0.7313143 2.0228887
1.0815842 0.72784185 2.0186791
1.0780346 0.73611069 2.0472353
1.051049 0.72838467 2.0308943
1.0239275 0.72032917 2.0134308
1.0144732 0.72464609 2.0307055
1.0014898 0.72653735 2.0410926
0.97936809 0.72175407 2.032485
0.95094478 0.71209794 2.0098715
0.93645942 0.71273351 2.0163875
0.92114806 0.71275115 2.0210648
0.92282516 0.72613704 2.063942
0.8923822 0.71427459 2.0344474
0.85979372 0.70024908 1.9985036
0.8476252 0.70265067 2.0096526
0.83606815 0.70565557 2.0224934
0.8229543 0.70743328 2.031738
0.80521935 0.70523083 2.0293827
0.78345263 0.69934475 2.016222
0.76931524 0.70017177 2.0224559
0.74886435 0.69517118 2.0116274
0.7208451 0.68279773 1.9791307
0.71902049 0.69523764 2.0190394
0.71107352 0.70216066 2.042825
0.68821722 0.69434214 2.0233169
0.67729861 0.69848776 2.0388422
0.65919983 0.69524878 2.0325761
0.65120631 0.70276463 2.0579326
0.6236605 0.68903601 2.0205078
0.60974789 0.69006783 2.0265632
0.59445471 0.68954968 2.0279586
0.57813781 0.68778729 2.0255816
0.56744784 0.69280219 2.0432534
0.53733051 0.6737287 1.9892169
0.53390247 0.68798971 2.0342703
0.51727092 0.68556476 2.0295832
0.50572169 0.68993092 2.0450859
0.49001822 0.68872237 2.0438766
0.46944678 0.68038309 2.0212402
0.45708895 0.68379456 2.0336876
0.442375 0.68379098 2.0358393
0.42028847 0.67199898 2.0025196
0.41161904 0.6815837 2.0333111
0.39729649 0.68217009 2.0370133
0.38346565 0.68367797 2.0434217
0.36671865 0.67989957 2.0338328
0.35061002 0.67704004 2.0269246
0.33646899 0.67789686 2.0311506
0.32317209 0.68060899 2.040915
0.30355406 0.66963428 2.0092385
0.29098076 0.67388076 2.0234981
0.27822167 0.67811972 2.0376821
0.26043862 0.66990536 2.0140848
0.24608995 0.67007977 2.0158167
0.22850147 0.66090536 1.9891247
0.2154424 0.66448337 2.0010331
0.20118985 0.66462725 2.0024579
0.18517648 0.65853119 1.9848608
0.17273943 0.66519725 2.0059607
0.15890057 0.66718155 2.0127769
0.14436659 0.66635162 2.0109708
0.13023129 0.6673817 2.0147533
0.11707846 0.67432559 2.0364642
0.10139652 0.66660702 2.0134909
0.087103978 0.66698414 2.0150843
0.072760105 0.66703963 2.0156307
0.058331057 0.6661495 2.0132298
0.044022046 0.66649681 2.0145292
0.029711533 0.66714627 2.0166814
0.015394388 0.66872138 2.0215857
0.0010042863 0.66685563 2.0159411
-0.01332406 0.66591573 2.0130489
-0.027417278 0.66028726 1.995808
-0.042034473 0.66681296 2.0155203
-0.055771321 0.65960574 1.9933394
-0.070090182 0.66080958 1.996708
-0.084101513 0.65919697 1.991434
-0.096043058 0.64416754 1.9452579
-0.10356034 0.60699677 1.8316624
-0.1095979 0.57044911 1.7199606
-0.12118793 0.56725216 1.7096908
-0.1333714 0.567164 1.7088205
-0.14650862 0.57080638 1.7192292
-0.1591066 0.57194692 1.7219708
-0.17007078 0.5674724 1.7076015
-0.18254073 0.56828487 1.7092321
-0.20688607 0.60364497 1.8155922
-0.23648471 0.64925033 1.9528341
-0.25470948 0.66028428 1.9851078
-0.27112231 0.66570348 2.0002716
-0.28642938 0.6679998 2.0058963
-0.29875031 0.66344553 1.9907266
-0.31585774 0.66945136 2.007416
-0.33076447 0.67047244 2.0089581
-0.34698895 0.67396772 2.0178895
-0.36135903 0.67372513 2.0154655
-0.3680951 0.65981728 1.9718149
-0.38933212 0.67197019 2.0065873
-0.40921697 0.68100268 2.0318403
-0.42465627 0.68226838 2.033643
-0.43894595 0.68166417 2.0297556
-0.44702047 0.67175925 1.9979237
-0.46636474 0.67887986 2.0170555
-0.48096177 0.6788674 2.0147355
-0.49351925 0.67606181 2.0039997
-0.51199061 0.68128616 2.0171673
-0.52398795 0.6778447 2.0044017
-0.54049385 0.68026412 2.0090299
-0.55130124 0.67557293 1.9924318
-0.56991166 0.68043911 2.0041645
-0.58739412 0.68374866 2.0111687
-0.60527831 0.68735242 2.0189416
-0.62136036 0.68878692 2.0201964
-0.63180918 0.68405527 2.0031676
-0.64902616 0.68670005 2.0078392
-0.62178248 0.64323282 1.8767647
-0.68042362 0.68857151 2.0068407
-0.7046876 0.69793051 2.0309098
-0.71478206 0.69315821 2.0134466
-0.72434485 0.68807584 1.9950479
-0.74947804 0.69769162 2.0194938
-0.7646026 0.69779569 2.0160687
-0.76810271 0.68749118 1.9823182
-0.77986526 0.68483168 1.9707763
-0.80461526 0.69346416 1.9918724
-0.8282662 0.70085227 2.0091965
-0.84120232 0.69907182 1.9999229
-0.8581565 0.70063442 2.0002089
-0.88198954 0.70766222 2.0160854
-0.89298677 0.70432758 2.0021117
-0.91558701 0.71010321 2.0141377
-0.92766273 0.70766068 2.0025742
-0.94406962 0.70854765 2.0004346
-0.97444713 0.71972519 2.0274103
-0.97736073 0.71058547 1.9966248
-0.99383253 0.71143293 1.9940938
-1.0060353 0.70924503 1.9829177
-1.034218 0.71821982 2.0030637
-1.0508419 0.71902162 2.0000889
-1.064799 0.71800172 1.9919277
-1.0746208 0.71426255 1.9761188
-1.1026288 0.72254598 1.9937159
-1.1086342 0.71638155 1.9710422
-1.1360317 0.72401965 1.9865483
-1.1489317 0.72233665 1.9761534
-1.1646398 0.72244042 1.9706167
-1.1891239 0.72791374 1.9797146
-1.2142947 0.73365945 1.9893862
-1.2401674 0.73967648 1.9996196
-1.2510681 0.73672426 1.9853123
-1.2618288 0.73376465 1.9709541
-1.2983327 0.74566311 1.9966594
-1.3033417 0.73940343 1.9732381
-1.3430066 0.75271857 2.0023196
-1.3371575 0.74051094 1.9628954
-1.3421626 0.73453104 1.9401951
-1.3982521 0.75632215 1.991206
-1.3938897 0.74528921 1.9549532
1.4366976 0.74192137 1.9847594
1.4162135 0.73974264 1.9860598
1.4012569 0.74043417 1.9950315
1.3965359 0.74661404 2.0188909
1.3615252 0.73655498 1.9983865
1.3470342 0.73748791 2.0077686
1.3225111 0.73288429 2.0018475
1.315784 0.73815048 2.0230169
1.2924035 0.73408914 2.018357
1.2701738 0.73058689 2.0150971
1.2330163 0.71829879 1.987198
1.2334954 0.72790158 2.0202253
1.2125084 0.72492296 2.0180418
1.2071006 0.73130327 2.0420568
1.1832534 0.72653389 2.0346332
1.1534423 0.71792191 2.0161743
1.1481912 0.72456974 2.0407984
1.1159694 0.71414506 2.0168614
1.0945948 0.71046346 2.0119197
1.0849993 0.71443146 2.0287256
1.0663842 0.71248937 2.0285552
1.0373698 0.70343804 2.0078249
1.0340682 0.71181214 2.0371261
1.0071014 0.7039032 2.0193963
0.98587358 0.699821 2.0125611
0.94381583 0.68058896 1.9615791
0.95563126 0.70021129 2.0233831
0.93668395 0.69756663 2.0203881
0.9304052 0.70442533 2.0450747
0.90565085 0.69729143 2.0287492
0.89335608 0.69966996 2.0401976
0.86223626 0.68712997 2.0076714
0.85039628 0.68978107 2.0197289
0.83373004 0.68854266 2.0202396
0.81532633 0.68579704 2.016191
0.79702628 0.68303674 2.0119872
0.78054512 0.68175906 2.0120819
0.77453685 0.68975794 2.0397232
0.75497401 0.68576431 2.0315762
0.73815954 0.68415523 2.0304377
0.71537262 0.67682862 2.0120766
0.70252776 0.67879689 2.0214531
0.69080746 0.68196058 2.0343654
0.68073148 0.6869241 2.0526497
0.66489065 0.68616354 2.0536437
0.63566333 0.67123222 2.0117564
0.61961502 0.66983825 2.0106006
0.60879314 0.674164 2.0266821
0.59325653 0.67335439 2.027148
0.58163768 0.67706382 2.0412591
0.56453961 0.67442244 2.0360076
0.54656172 0.67055917 2.026938
0.53138167 0.67000937 2.0278683
0.51668477 0.67005479 2.0305371
0.5056079 0.67493546 2.0479138
0.48924646 0.67284346 2.043911
0.47318244 0.67104268 2.0407119
0.45656839 0.66832101 2.0346022
0.44147009 0.66771072 2.0348849
0.42270622 0.66132379 2.0173349
0.40946114 0.66342336 2.025785
0.39539585 0.6643002 2.0304096
0.37884831 0.66091377 2.0218265
0.36529157 0.66268301 2.0290592
0.35100889 0.6632275 2.0324485
0.3374691 0.6652838 2.0404408
0.3236872 0.66702747 2.0474052
0.30390167 0.65597779 2.0147138
0.29386634 0.66592145 2.0469191
0.27521855 0.6563682 2.0186749
0.26073736 0.65624446 2.0195632
0.24637242 0.65641588 2.0212972
0.23285812 0.65901607 2.030503
0.21690308 0.65459549 2.0178404
0.20019543 0.64711362 1.9955822
0.19082555 0.66402048 2.0490594
0.17617734 0.66383982 2.0493653
0.15900952 0.65327495 2.0172901
0.14406019 0.65063149 2.0097787
0.13044243 0.65408188 2.0211685
0.11602138 0.65386039 2.02106
0.10179837 0.65485018 2.0246572
0.087041572 0.65216666 2.0167413
0.072605886 0.65130502 2.0144324
0.058371156 0.65226567 2.0177352
0.044196613 0.65474361 2.025701
0.029676365 0.65202022 2.0173848
0.015311567 0.65081376 2.0137296
0.0010096775 0.65601134 2.0299733
-0.013445633 0.65753412 2.034692
-0.027552767 0.64927423 2.0088427
-0.041827295 0.64925081 2.0086062
-0.05604716 0.64860672 2.0063677
-0.070237644 0.64795291 2.0040326
-0.084597208 0.64881629 2.0063581
-0.094341293 0.61914021 1.9134723
-0.098574951 0.56534535 1.7454441
-0.10859438 0.55306524 1.7067121
-0.12133767 0.55573392 1.7144779
-0.13434283 0.55900389 1.7240512
-0.14612886 0.55707806 1.7173971
-0.15765463 0.55453467 1.7087694
-0.17018719 0.5556435 1.7114412
-0.18266559 0.55643874 1.7130774
-0.19474888 0.55600625 1.7108405
-0.20975974 0.56348926 1.7331085
-0.24034946 0.60965383 1.8752494
-0.27105364 0.65121603 2.0028894
-0.28729174 0.65559596 2.0151339
-0.30231586 0.65691954 2.0178304
-0.31944749 0.66249305 2.033596
-0.33114257 0.65679741 2.0144379
-0.34370428 0.65322483 2.0017931
-0.36127084 0.6590693 2.0181525
-0.37631434 0.66003764 2.0193782
-0.39571118 0.66828614 2.0429504
-0.40147534 0.65374506 1.9962767
-0.42359167 0.66591603 2.0317352
-0.4316552 0.65591979 1.9989699
-0.44505331 0.654414 1.9922439
-0.45944357 0.65441567 1.9900757
-0.47953045 0.66228503 2.0119197
-0.48978451 0.65651047 1.9919189
-0.50722039 0.66041756 2.0014541
-0.5233835 0.66249597 2.0053098
-0.53889209 0.66365588 2.006278
-0.55671084 0.66752458 2.0154042
-0.56383002 0.65869474 1.9858443
-0.59414697 0.67672944 2.0377905
-0.60758287 0.67512512 2.0300076
-0.62038529 0.67291021 2.0203156
-0.63137728 0.66888052 2.0050855
-0.61368459 0.63533753 1.9008037
-0.66619337 0.67434847 2.0152457
-0.68057281 0.67390496 2.0106192
-0.69058204 0.66924512 1.9932655
-0.70734525 0.67118847 1.9956676
-0.73612654 0.68422312 2.0311475
-0.7338441 0.6684404 1.9803708
-0.76544625 0.68353617 2.0217135
-0.77750254 0.6809324 2.0101607
-0.79466075 0.68281072 2.0118661
-0.80479527 0.67869627 1.9957131
-0.81510496 0.67487675 1.9804021
-0.84322959 0.68568003 2.0082145
-0.84677941 0.67647165 1.976879
-0.87536353 0.68723518 2.0042739
-0.89743906 0.69261044 2.0156515
-0.89698631 0.6807099 1.9763311
-0.92310345 0.6890325 1.9961263
-0.94712532 0.69554752 2.0104656
-0.96401191 0.6966989 2.0090497
-0.98134696 0.69813329 2.008357
-0.99534249 0.69718432 2.0006714
-1.011856 0.69800103 1.998011
-1.0344759 0.70294291 2.0071268
-1.0528704 0.70491016 2.0075517
-1.0655148 0.70302647 1.9968427
-1.0789698 0.70172381 1.9877397
-1.0905159 0.69923395 1.9751958
-1.1242684 0.71085405 2.0026674
-1.1386855 0.71009755 1.9948353
-1.1578217 0.71226472 1.9951864
-1.170745 0.710603 1.9846438
-1.1943349 0.71537405 1.9920994
-1.229473 0.72684824 2.0181472
-1.2370127 0.7219215 1.9981714
-1.26307 0.72778946 2.0082138
-1.267309 0.72109616 1.9832556
-1.2821354 0.72051799 1.97523
-1.2990079 0.72108972 1.9703008
-1.3465887 0.73848861 2.0114653
-1.2990187 0.7039125 1.9100573
-1.3755579 0.73661107 1.9926072
-1.3658938 0.72292393 1.9484521
-1.4103351 0.73785853 1.9819574
1.4348966 0.72469854 1.9859427
1.417743 0.72425884 1.9919113
1.40934 0.72833091 2.0103405
1.3844818 0.72389501 2.0050216
1.3726454 0.72624332 2.0185361
1.3521954 0.7240358 2.0192118
1.3365309 0.72436821 2.0269251
1.3057697 0.71642584 2.0111551
1.2953277 0.71957254 2.0266263
1.2735648 0.71643054 2.0241687
1.263948 0.72012818 2.0411048
1.2392786 0.7152344 2.033412
1.2231169 0.7151866 2.0394742
1.1987047 0.71024895 2.0313611
1.1811689 0.70930737 2.0346301
1.1683736 0.71122569 2.0460892
1.125635 0.69471693 2.0039344
1.1084194 0.69371742 2.006635
1.096224 0.69587618 2.0184681
1.0812294 0.69629496 2.0251539
1.0684104 0.69814748 2.0359764
1.0493895 0.69594228 2.0347908
1.0308741 0.69401067 2.0342968
1.0111513 0.69119436 2.0310721
0.99362034 0.68981165 2.0319793
0.97283834 0.6860925 2.0258329
0.95463187 0.68409908 2.0246985
0.93849212 0.68354565 2.0277591
0.9200021 0.68123353 2.0254619
0.88805318 0.6687085 1.9923886
0.87642372 0.67131615 2.0046051
0.8616733 0.67158282 2.0097165
0.84837139 0.67300808 2.0182524
0.83571953 0.67501009 2.0284727
0.81976825 0.67437202 2.0306273
0.80033892 0.67079479 2.0237598
0.78276747 0.6686672 2.0211861
0.76325643 0.66476697 2.0131001
0.73828763 0.65586257 1.9895939
0.73993558 0.67072213 2.0386891
0.72854161 0.67413223 2.0527415
0.72165686 0.68194818 2.0802906
0.68912417 0.66534072 2.0326605
0.68057847 0.67166919 2.0555017
0.65539849 0.66149598 2.0273681
0.63550735 0.65631235 2.0144918
0.62560052 0.66143847 2.0334258
0.60646558 0.65681988 2.0221016
0.59364474 0.65897977 2.031718
0.57968229 0.65995061 2.0375791
0.56415051 0.6591388 2.0378196
0.54741359 0.65683734 2.0333321
0.53509164 0.65985245 2.0453556
0.52006036 0.65960336 2.0471203
0.50639468 0.66112232 2.0543447
0.49155265 0.66115099 2.0568342
0.47648865 0.66087365 2.0582895
0.45334592 0.64901286 2.0232832
0.44216335 0.65405476 2.0412753
0.42570364 0.65136909 2.0349033
0.40841976 0.6471861 2.0237243
0.39366806 0.6468547 2.0245955
0.3834573 0.65424556 2.0497692
0.36503124 0.64765024 2.0307255
0.35285285 0.65205216 2.0463476
0.33522326 0.64632559 2.02987
0.3193222 0.64356387 2.0226827
0.30678558 0.64764237 2.0370905
0.28989434 0.64247644 2.0221283
0.27527469 0.64206719 2.0221698
0.26297101 0.64731336 2.0400984
0.24642287 0.64211428 2.0247896
0.23204415 0.64227289 2.0264254
0.21714962 0.64093006 2.023217
0.20306753 0.64196479 2.0275013
0.18762052 0.63851279 2.0174358
0.17329802 0.63863271 2.0186689
0.16156891 0.64919484 2.0531061
0.1445628 0.63854563 2.0198903
0.13022566 0.63863707 2.020829
0.11572008 0.63782281 2.0188115
0.10082215 0.63430977 2.0081155
0.086162344 0.63138419 1.9992214
0.071360447 0.62605786 1.982595
0.057808898 0.63177907 2.0011587
0.04393762 0.63659489 2.0167706
0.029710284 0.63841259 2.0227468
0.015336276 0.63753104 2.0200381
0.00099389546 0.6315586 2.001008
-0.013279719 0.63514119 2.0124176
-0.027402759 0.63154101 2.0008278
-0.041796427 0.6345067 2.010133
-0.056032132 0.63417524 2.0088449
-0.070086263 0.63234013 2.002691
-0.081108689 0.60838348 1.9258846
-0.087608434 0.56231201 1.7784933
-0.096777156 0.54283065 1.7159169
-0.10860748 0.54096985 1.709499
-0.12135263 0.54358155 1.7172836
-0.1335526 0.54349679 1.7164128
-0.14566649 0.5431053 1.7145072
-0.1569795 0.54001921 1.7039654
-0.1697406 0.54200017 1.7095001
-0.18178649 0.54158491 1.7073489
-0.19530675 0.54533863 1.7183951
-0.20740271 0.5449068 1.7160702
-0.22175981 0.55013257 1.731655
-0.24459344 0.57472342 1.8086206
-0.27760255 0.61955661 1.9496261
-0.30125591 0.64022279 2.0137775
-0.31731108 0.64359313 2.0229874
-0.3309027 0.64189065 2.0160568
-0.34249189 0.63660842 1.9977442
-0.35934317 0.64113867 2.0103934
-0.37170979 0.63762635 1.997558
-0.38553429 0.63678306 1.9930905
-0.40416712 0.64365745 2.0128777
-0.416917 0.64101171 2.0025814
-0.43653578 0.64875084 2.0248904
-0.44493452 0.63985407 1.9948128
-0.45868194 0.63896567 1.9898556
-0.47479779 0.64133024 1.9950305
-0.49417609 0.64783239 2.013072
-0.50848442 0.64750606 2.0096374
-0.52468401 0.64953923 2.0135016
-0.54121107 0.65185678 2.0181639
-0.55203211 0.64736062 2.0015049
-0.56419921 0.64463353 1.9903134
-0.58392864 0.65046698 2.0056701
-0.60254705 0.6548081 2.0162711
-0.61661875 0.65411884 2.0111732
-0.6297974 0.65253651 2.0032432
-0.64900935 0.65713489 2.014344
-0.66424787 0.6575951 2.0125628
-0.68192792 0.66039968 2.0179183
-0.70158178 0.6649555 2.0285518
-0.71002245 0.65891504 2.0065451
-0.72465169 0.65874738 2.0025148
-0.74848717 0.66678774 2.0235081
-0.76493651 0.66806161 2.0236809
-0.77800792 0.6663931 2.014797
-0.7871626 0.66149622 1.9960371
-0.8003515 0.66010821 1.9879049
-0.81382942 0.65900481 1.9805737
-0.83275747 0.66227525 1.9863981
-0.85629624 0.66903323 2.0026231
-0.87479317 0.67168659 2.0063279
-0.8833518 0.66674852 1.9871186
-0.91326189 0.67782229 2.0158789
-0.93087733 0.67955732 2.0164869
-0.94329113 0.67750019 2.0056782
-0.94368786 0.66701472 1.969733
-0.9761498 0.67916697 2.0010684
-0.99218488 0.67969173 1.9977103
-1.0103718 0.68165237 1.9985055
-1.0203532 0.67810118 1.9829477
-1.0354648 0.6780138 1.9775441
-1.0639776 0.6865766 1.9974209
-1.0860281 0.6907841 2.004349
-1.1100727 0.69612348 2.0144291
-1.1240801 0.69510746 2.0058608
-1.139439 0.69494373 1.9996983
-1.1547703 0.69476777 1.9934217
-1.1691065 0.69400591 1.9853765
-1.1838787 0.69351929 1.9780549
-1.2080148 0.69845974 1.9862128
-1.2333325 0.70394748 1.9957672
-1.2558092 0.70769536 2.0001876
-1.221516 0.67975765 1.9145008
-1.2866299 0.70714569 1.985813
-1.279446 0.69461441 1.9439391
-1.3157105 0.70568913 1.9685853
-1.3609629 0.72126341 2.0055504
-1.3402327 0.70191395 1.9446177
-1.3865218 0.71770614 1.9817681
-1.3914135 0.71195292 1.9587872
1.4358652 0.70888412 1.9909056
1.4342016 0.71619487 2.0188642
1.3998708 0.70717299 2.0003345
1.3778121 0.70421159 1.9988788
1.3767798 0.71205413 2.0282931
1.3658375 0.71489847 2.0433843
1.328485 0.70382023 2.018219
1.3170214 0.70635378 2.0322192
1.2936105 0.70246261 2.0275004
1.2769394 0.70217943 2.0331521
1.2627662 0.70328009 2.0427651
1.2281771 0.69289148 2.0185881
1.2165575 0.69535851 2.0319948
1.1839805 0.68575299 2.0097096
1.1761918 0.69043905 2.0295036
1.1672385 0.69456047 2.0476172
1.1249613 0.67869186 2.0061741
1.1160423 0.68278497 2.0240078
1.0951102 0.67954034 2.0198493
1.0814749 0.68079531 2.0290685
1.0655551 0.68062788 2.033942
1.0422053 0.67563879 2.0241747
1.0233566 0.67346066 2.0227551
1.0084031 0.67381847 2.0289142
0.99258178 0.67359853 2.0332394
0.97304648 0.67081124 2.0296521
0.9605152 0.67284042 2.0406606
0.9350931 0.66575825 2.0237093
0.93002927 0.67317587 2.0510888
0.91030091 0.67005056 2.0460525
0.88231421 0.6606341 2.0214946
0.8790831 0.66974825 2.053988
0.85038424 0.65943831 2.0263765
0.84168297 0.66454297 2.0463781
0.81815374 0.65791249 2.0298815
0.79560411 0.65183473 2.0149453
0.78120559 0.65232992 2.02037
0.76711071 0.65310311 2.0265908
0.7460292 0.64784008 2.0138345
0.72970879 0.64658123 2.0135059
0.72455639 0.65537161 2.0446744
0.69938499 0.64604342 2.0188088
0.68895346 0.65022135 2.0353651
0.68190831 0.65785164 2.0627935
0.65114284 0.6424256 2.0172691
0.63991284 0.6460045 2.0317419
0.62404609 0.64496136 2.0315039
0.60821742 0.64390785 2.031147
0.59588879 0.64659959 2.0426257
0.57953447 0.64494914 2.0402124
0.56172675 0.64155191 2.0321348
0.54825884 0.64306164 2.0396347
0.53327388 0.64282644 2.0414894
0.51712376 0.64113319 2.0385962
0.49922588 0.63711017 2.0281432
0.48062083 0.63191396 2.013819
0.46545434 0.63105571 2.0133302
0.45343167 0.63454163 2.0267441
0.43160421 0.62408221 1.9951817
0.42423138 0.63452291 2.0308807
0.40755889 0.63130254 2.0224757
0.38939798 0.62545353 2.0054858
0.37516046 0.62569916 2.008101
0.36711454 0.6367029 2.0454688
0.34824821 0.62907499 2.0224688
0.33204269 0.62580055 2.0134723
0.31967852 0.62979722 2.0279808
0.30402079 0.62737662 2.0216026
0.28994942 0.6281516 2.0255263
0.27609438 0.62950104 2.0312514
0.26059794 0.6270504 2.0245502
0.24658452 0.62809002 2.0291314
0.22971597 0.62153405 2.0089087
0.21486445 0.61992759 2.0047238
0.20187849 0.62385768 2.0185163
0.18853393 0.62719631 2.0303233
0.17260139 0.62176555 2.0134563
0.15892377 0.62421012 2.0222149
0.14574064 0.6292755 2.0394695
0.1301287 0.6238144 2.0222819
0.11536252 0.62155676 2.0154834
0.10088871 0.62045854 2.0124023
0.086994506 0.62315029 2.021642
0.072123356 0.61852556 2.0068958
0.057847101 0.61798346 2.0054283
0.044007935 0.62327874 2.0229845
0.029437631 0.61833286 2.0069807
0.015260075 0.62010163 2.0128708
0.00099878851 0.6203993 2.0138824
-0.013238469 0.61893338 2.0090592
-0.027355984 0.61628884 2.0003142
-0.041843753 0.62094396 2.0153768
-0.0560163 0.61974263 2.0112183
-0.068210199 0.60157794 1.9515302
-0.076298892 0.55943936 1.8134254
-0.08421924 0.52840579 1.7116085
-0.097000882 0.53185356 1.7224498
-0.10921921 0.5317862 1.7217455
-0.12056525 0.52791315 1.708555
-0.13275944 0.5281226 1.7086433
-0.14576243 0.53124475 1.7181783
-0.15769063 0.5302698 1.714283
-0.17003925 0.53074706 1.7150675
-0.18200618 0.53004885 1.7119615
-0.19479349 0.53167742 1.7163789
-0.20628925 0.52979654 1.7093077
-0.22058216 0.53490871 1.7249366
-0.2311703 0.53097117 1.7110618
-0.24544953 0.53548151 1.724595
-0.27592263 0.57320189 1.8458885
-0.30605766 0.60681206 1.9536089
-0.32712549 0.62029725 1.9958485
-0.34271508 0.6227017 2.0020514
-0.35590631 0.62073028 1.9940063
-0.37073708 0.62166023 1.9952868
-0.38506439 0.6217081 1.9936417
-0.40424266 0.62930441 2.0162959
-0.41970038 0.63078374 2.0191035
-0.43042102 0.62528253 1.9993376
-0.45038486 0.63313079 2.0225058
-0.46260062 0.62993664 2.0100436
-0.47290766 0.62441617 1.9900602
-0.4901967 0.6281684 1.9997925
-0.50532049 0.62901044 2.0000994
-0.52191055 0.63158005 2.0058563
-0.53664237 0.63182265 2.0040812
-0.55137706 0.63205582 2.0022011
-0.56766737 0.63401437 2.0057454
-0.58881366 0.64116251 2.0257199
-0.59885514 0.63616478 2.0069442
-0.60615891 0.62856638 1.9798841
-0.62706727 0.63510102 1.9976169
-0.64330792 0.63671821 1.9996496
-0.66943419 0.64782995 2.0315919
-0.67445648 0.63847959 1.9987937
-0.69737124 0.64610493 2.0194802
-0.70984089 0.64393657 2.0092168
-0.73190171 0.65037978 2.0259283
-0.74039239 0.64474791 2.0046582
-0.75198251 0.64198315 1.9923407
-0.77302492 0.64723909 2.0050156
-0.79289305 0.65133178 2.013926
-0.80689484 0.65054309 2.0075295
-0.81976575 0.64888793 1.9983748
-0.8358596 0.64979756 1.9971055
-0.85945725 0.65640616 2.0133598
-0.86166579 0.64673287 1.9792321
-0.87889117 0.64846754 1.9802617
-0.91659051 0.66499847 2.0266244
-0.91392499 0.65218222 1.9827651
-0.9260748 0.65018135 1.9720652
-0.95908886 0.66265982 2.0054712
-0.9771896 0.66460514 2.0065703
-0.99324179 0.66511863 2.0032146
-0.99899167 0.65882236 1.9791535
-1.0040183 0.65224439 1.9542569
-1.0445198 0.66856652 1.9983584
-1.0651081 0.67185402 2.0029652
-1.0867262 0.67568791 2.0090747
-1.0942359 0.67076522 1.9888755
-1.1005853 0.66527814 1.9669937
-1.13876 0.6789152 2.0019488
-1.1550404 0.67930686 1.9973465
-1.1693815 0.67856282 1.9893004
-1.1905229 0.6817323 1.9927136
-1.2117752 0.68488216 1.9959315
-1.2456678 0.69500375 2.0194235
-1.24649 0.68665135 1.9887298
-1.2623276 0.68667597 1.9824806
-1.2750286 0.68501467 1.9712608
-1.2755713 0.67694187 1.9414574
-1.3446857 0.7050156 2.015873
-1.3211358 0.6844154 1.9498993
-1.354127 0.69324672 1.9684722
-1.3770516 0.69677883 1.9716792
-1.4028552 0.70166963 1.9785976
1.4379305 0.69357657 1.9973267
1.421844 0.69369406 2.0048733
1.4029797 0.69244313 2.0083427
1.3955367 0.69686615 2.0283456
1.3717656 0.6931439 2.0243859
1.3534371 0.69211519 2.0282228
1.3424833 0.69487876 2.0431917
1.3256668 0.69463837 2.0492029
1.2995812 0.68947434 2.0404449
1.2797894 0.68756109 2.041229
1.2374463 0.6733281 2.0049281
1.2016486 0.66233349 1.9780278
1.1923064 0.66582328 1.9945713
1.1949103 0.67616618 2.0318453
1.1798083 0.67663366 2.0392325
1.1679749 0.67901433 2.0523705
1.1429445 0.67368233 2.0419123
1.1296488 0.67521435 2.052299
1.1117182 0.67398018 2.0541339
1.0691361 0.65754896 2.0090754
1.0520527 0.65654767 2.0112982
1.0459136 0.66244841 2.0347834
1.0334687 0.66447335 2.0462542
1.014975 0.6626116 2.0455835
0.99110836 0.65712947 2.0335135
0.98148423 0.66106635 2.0507174
0.9550221 0.6536063 2.0321927
0.93967313 0.65363222 2.0369837
0.91525435 0.64724505 2.0215113
0.91047895 0.65476805 2.049741
0.87790656 0.64221579 2.014538
0.86313111 0.6424709 2.0196526
0.84833151 0.64271671 2.0246615
0.83532017 0.64435083 2.0340092
0.82151067 0.64541847 2.041492
0.79644811 0.6375187 2.0202744
0.77722615 0.63408053 2.013154
0.76691329 0.63791817 2.0292346
0.74980044 0.63613993 2.0272489
0.71686339 0.62059021 1.980865
0.71864772 0.63507712 2.0310171
0.70947975 0.64029545 2.0513341
0.68572068 0.63228607 2.0288627
0.67247504 0.63383055 2.0371685
0.65388775 0.63029623 2.02894
0.63659662 0.62787616 2.024219
0.62303948 0.62911153 2.0312903
0.6099627 0.63090378 2.0401123
0.59333163 0.62901741 2.0368731
0.57313991 0.62316322 2.0205774
0.56182599 0.62690765 2.0355575
0.54736894 0.62725216 2.0393581
0.53000402 0.62419116 2.0319171
0.52095693 0.63103086 2.0568907
0.50681347 0.63191772 2.0622718
0.48291072 0.62032193 2.0264969
0.46767586 0.6194846 2.0260148
0.45330355 0.61977273 2.0291669
0.43891159 0.62005204 2.0322201
0.42411175 0.61975467 2.0332966
0.40631568 0.61490178 2.0192251
0.39163819 0.61458409 2.0200729
0.37313047 0.60800093 2.0000782
0.36449438 0.61761957 2.0337296
0.34314907 0.60560751 1.9955381
0.33457392 0.6160686 2.0318952
0.3188473 0.61371243 2.0256095
0.30478054 0.61447936 2.0296364
0.28932738 0.61238801 2.0240781
0.27537563 0.6134221 2.0288568
0.25870341 0.60817498 2.012625
0.24330482 0.60548264 2.0048285
0.23148245 0.61190891 2.0273943
0.21601497 0.60891289 2.0184436
0.2033319 0.61389768 2.0360842
0.18830411 0.61202449 2.0307436
0.17417295 0.61299646 2.0348458
0.15939841 0.61167526 2.0312095
0.14522541 0.61262929 2.0351171
0.12978584 0.60786146 2.0198014
0.11635973 0.6125108 2.0359476
0.10133435 0.60886627 2.0242505
0.086479157 0.60521185 2.0124474
0.072306462 0.60583419 2.0149047
0.058130968 0.60673326 2.0182238
0.044119053 0.61048138 2.0310271
0.029874515 0.61307734 2.0399027
0.015356348 0.60966206 2.0285585
0.00099896418 0.60623729 2.0171149
-0.013359678 0.61023498 2.0304887
-0.027386682 0.60279047 2.0054352
-0.041673709 0.6041975 2.0099902
-0.055761717 0.60273719 2.0048671
-0.066430248 0.57240498 1.9029193
-0.072439089 0.51892281 1.7233716
-0.084320314 0.51687253 1.716135
-0.09658362 0.51738608 1.7174313
-0.10826894 0.51503515 1.7090783
-0.12024251 0.51439089 1.7063853
-0.1328451 0.5163092 1.7122113
-0.14481404 0.51564962 1.7093524
-0.15779227 0.51840806 1.7178659
-0.16968083 0.51744741 1.7138848
-0.18142129 0.51619405 1.7088711
-0.19609556 0.5229215 1.7304487
-0.20824046 0.52250767 1.7281152
-0.21879816 0.51837963 1.7133375
-0.23068342 0.51766682 1.7099006
-0.24386872 0.51979643 1.7158756
-0.25757098 0.52277195 1.7245976
-0.27817157 0.53883857 1.7767879
-0.32041892 0.59360647 1.9574627
-0.34293374 0.60876834 2.0062621
-0.35646707 0.60740966 2.0000925
-0.37114674 0.60803372 2.0004346
-0.38584992 0.60864854 2.0006726
-0.40505996 0.61607409 2.023375
-0.41300273 0.60644162 1.9895643
-0.43269429 0.61412811 2.0129471
-0.4440577 0.60987943 1.996828
-0.46054775 0.61271745 2.0040238
-0.47672302 0.61497706 2.0092232
-0.48575252 0.60815698 1.9844762
-0.50703633 0.61663049 2.0099421
-0.52056295 0.61546099 2.0036337
-0.53673375 0.61739647 2.0074353
-0.55399591 0.62045205 2.0148127
-0.56854159 0.62038654 2.0118906
-0.57723445 0.61409771 1.9885863
-0.59242994 0.61486506 1.9882597
-0.61155087 0.6195727 2.0006735
-0.62375474 0.61721659 1.9900161
-0.64196128 0.62077206 1.9984859
-0.66508627 0.62881964 2.0213952
-0.68096238 0.62981236 2.0213306
-0.69438809 0.62854481 2.013881
-0.70045286 0.62080616 1.9855114
-0.71747708 0.62289852 1.9887825
-0.72963768 0.62076932 1.9783947
-0.75076884 0.6262058 1.9922107
-0.77898622 0.63722962 2.0237656
-0.79373449 0.63702703 2.0192518
-0.80739599 0.63597596 2.0119569
-0.82135928 0.63519651 2.0054607
-0.83527523 0.63440889 1.9988695
-0.85512793 0.63807893 2.0063338
-0.8694272 0.63754988 2.0003932
-0.88678175 0.63924134 2.0013857
-0.90301973 0.6400848 1.9996058
-0.91569018 0.63841325 1.9898344
-0.92462492 0.63423324 1.9721464
-0.95762908 0.64643389 2.0056529
-0.96986574 0.64445329 1.9946669
-0.99004829 0.64773214 1.9999949
-1.0047722 0.6473946 1.9939672
-1.0229517 0.64926022 1.9946846
-1.0456152 0.65387511 2.0037813
-1.0657753 0.65681326 2.0075583
-1.0765111 0.65394247 1.9933618
-1.0995241 0.65850544 2.0019045
-1.1203865 0.66167134 2.0060208
-1.1394782 0.66371912 2.0065949
-1.1486005 0.6599831 1.9894811
-1.1730256 0.66502243 1.9989315
-1.1849107 0.66291332 1.9866225
-1.1951957 0.65997553 1.9717742
-1.2223858 0.66632819 1.9847871
-1.2396756 0.66719151 1.9811746
-1.2600573 0.66967654 1.982302
-1.2737721 0.66860062 1.9727129
-1.2926639 0.67023516 1.9710976
-1.3190267 0.67565733 1.9805589
-1.3246748 0.67046577 1.958584
-1.3441688 0.67232186 1.9573122
-1.3560447 0.67036867 1.9447851
-1.3777691 0.67327315 1.9463736
1.4539759 0.68480676 2.0232785
1.4199812 0.67647678 2.0056772
1.3978373 0.67366439 2.0043616
1.3926215 0.67904013 2.0275407
1.3640352 0.67301285 2.0163248
1.3425934 0.67040789 2.0152702
1.3370163 0.67575783 2.0382559
1.3150543 0.67285621 2.0361071
1.2973078 0.67206615 2.0402761
1.2536336 0.65765429 2.0025492
1.2563146 0.6675027 2.0391352
1.2302186 0.66211849 2.028796
1.2117015 0.66072541 2.0306318
1.2000142 0.66306907 2.0439644
1.1862853 0.66433257 2.0538909
1.1492944 0.65242553 2.0226147
1.138508 0.65527004 2.0372546
1.1280358 0.65837806 2.0526884
1.0919167 0.64639235 2.0205507
1.0684427 0.64165348 2.0110137
1.0611132 0.64661354 2.0320265
1.0456775 0.64670801 2.0375919
1.0207415 0.64084089 2.0241029
1.0113453 0.64469957 2.0414679
0.99380416 0.64340562 2.0423315
0.96970677 0.63775867 2.0291376
0.94950753 0.6345349 2.0235629
0.93024093 0.63183886 2.0195587
0.91344643 0.63076013 2.0206547
0.89629966 0.62939763 2.020736
0.88988203 0.63565201 2.0454121
0.86928231 0.63181758 2.0373163
0.85474843 0.63233399 2.043252
0.83365113 0.6279254 2.0330474
0.81345755 0.62404698 2.0244389
0.79203141 0.61905909 2.0120666
0.78010345 0.62144601 2.0237527
0.75793439 0.61560833 2.0083518
0.74827033 0.61989731 2.0261533
0.72865915 0.61595237 2.0167623
0.71876675 0.62022978 2.0344222
0.70180559 0.61845964 2.032032
0.68400109 0.61585337 2.0267723
0.66152591 0.6088329 2.0067461
0.65779668 0.61913794 2.044205
0.63984573 0.61622483 2.0376546
0.62425905 0.61550438 2.0383146
0.61006302 0.61615336 2.0434675
0.59422833 0.61513829 2.0429826
0.57479191 0.61024749 2.0294256
0.55836749 0.60838163 2.0258992
0.53831774 0.60235816 2.0083144
0.51710206 0.59466028 1.9849712
0.51776838 0.61240476 2.0471821
0.495983 0.60385609 2.0208023
0.48166314 0.60415441 2.0241489
0.46732229 0.60444438 2.0273967
0.45296124 0.60472584 2.0305457
0.4387815 0.60527635 2.0345354
0.41990173 0.59915817 2.0158491
0.40412575 0.59719056 2.0111356
0.38916296 0.59632367 2.0100775
0.37423605 0.59544736 2.0089121
0.35900977 0.59400588 2.0057478
0.35046288 0.60395527 2.0412958
0.33153424 0.59610057 2.0161507
0.31904677 0.59964037 2.0297568
0.30398178 0.59844166 2.0271385
0.289913 0.59918249 2.031069
0.27145118 0.59044546 2.0025418
0.2587446 0.59395272 2.0157809
0.24460459 0.59438783 2.0184536
0.23184413 0.59843785 2.0334363
0.21625236 0.59523213 2.0235114
0.20156832 0.59424704 2.021117
0.18692888 0.5932526 2.01862
0.17192884 0.59085411 2.0112367
0.15987141 0.59904855 2.0401268
0.14321707 0.58993495 2.0095596
0.12883045 0.58918279 2.0076146
0.11670489 0.59986615 2.0448771
0.10158884 0.5960263 2.032198
0.086615652 0.59189755 2.0184526
0.072249882 0.59110963 2.0161164
0.058277395 0.59394282 2.0261593
0.043733645 0.59090304 2.0159485
0.029572917 0.5926016 2.0219593
0.015056314 0.58367902 1.9913865
0.00098734419 0.58508039 1.9962424
-0.013055074 0.58228385 1.9865988
-0.026988238 0.58003706 1.9787807
-0.041246429 0.58392537 1.991989
-0.053786349 0.56769902 1.9359875
-0.061428007 0.51684248 1.7609168
-0.072125733 0.50451517 1.7182409
-0.084373705 0.50502461 1.7196252
-0.096377909 0.50413054 1.716131
-0.10869795 0.50490379 1.7183064
-0.12045214 0.50315756 1.7117746
-0.13278201 0.50391561 1.713783
-0.14546712 0.50578171 1.7195332
-0.1574571 0.50512916 1.7165849
-0.16950688 0.5047484 1.7145123
-0.1821377 0.50603294 1.7180882
-0.19418509 0.50563705 1.7158478
-0.20586918 0.50439775 1.7106652
-0.21749054 0.5031516 1.7054058
-0.22930293 0.50245565 1.7019742
-0.24134603 0.50230974 1.7003661
-0.25464237 0.50466162 1.7072268
-0.26922444 0.50923073 1.7215806
-0.28202191 0.51017308 1.7234912
-0.3150737 0.54614526 1.8446404
-0.35134324 0.58458555 1.973928
-0.37172541 0.59464598 2.0064349
-0.3844671 0.59219074 1.9962958
-0.39633805 0.5886181 1.9823097
-0.41925964 0.60113692 2.0228374
-0.4267574 0.59144324 1.9879714
-0.44867474 0.60171443 2.0206578
-0.45848578 0.59561515 1.9978644
-0.4721792 0.59477657 1.9928073
-0.49126163 0.60057569 2.0100708
-0.49989122 0.59362978 1.984284
-0.52112299 0.60161936 2.0087318
-0.52746457 0.59245139 1.9753864
-0.55206221 0.60373169 2.0106702
-0.56655782 0.60366857 2.0077641
-0.57466578 0.59697318 1.982587
-0.59823614 0.60627496 2.0108645
-0.61359674 0.60701156 2.0103936
-0.6326896 0.61131996 2.0217433
-0.64643526 0.61038321 2.0155218
-0.66549194 0.61439145 2.0256619
-0.67041677 0.60546243 1.9927732
-0.68641722 0.60670334 1.9935812
-0.70659012 0.61150342 2.0060654
-0.73377347 0.62205034 2.0373833
-0.73998278 0.61475039 2.0097103
-0.75728035 0.61676794 2.0126841
-0.77911621 0.62233281 2.0271986
-0.79456514 0.62268209 2.0244799
-0.80575317 0.61974114 2.0109198
-0.81968701 0.61898088 2.0044343
-0.8350457 0.61930442 2.00141
-0.85377496 0.62207252 2.0062466
-0.86272383 0.61774188 1.987945
-0.88074416 0.61994356 1.9907628
-0.90120935 0.62376386 1.9986974
-0.91464895 0.62267596 1.9906839
-0.93694377 0.62755412 2.0017843
-0.94915563 0.62563127 1.9909211
-0.97379762 0.63183367 2.0060017
-0.98217285 0.62745315 1.9871305
-1.0040944 0.63172811 1.9958035
-1.0083113 0.62490296 1.9690769
-1.0444846 0.63779223 2.0048268
-1.0623925 0.63931584 2.0043764
-1.0785332 0.63974774 2.0003788
-1.087309 0.63586038 1.98272
-1.1028874 0.63600409 1.9776787
-1.1364009 0.6463446 2.0044191
-1.1564829 0.6488694 2.0065398
-1.1650343 0.64494365 1.9884907
-1.1866246 0.64824438 1.9928185
-1.2197469 0.65767723 2.0159442
-1.2236482 0.65131444 1.9901718
-1.2440031 0.65375966 1.9914769
-1.2593049 0.65352142 1.9844414
-1.2808038 0.65646535 1.9870361
-1.2887506 0.65247619 1.9684124
-1.3087097 0.65459162 1.9682868
-1.3142437 0.64952737 1.9463538
-1.3564118 0.66247451 1.9786601
-1.3607447 0.65685672 1.9549302
-1.3869553 0.6618073 1.9628292
1.4414353 0.66253328 2.0090744
1.4158736 0.6582585 2.0031893
1.4009024 0.65886527 2.0121529
1.3880489 0.66049397 2.0242038
1.3643395 0.6569342 2.0201306
1.3577847 0.66164839 2.0416236
1.3299421 0.65597737 2.0307372
1.2846278 0.6414423 1.9919132
1.2790549 0.64663601 2.0146506
1.2686448 0.64948457 2.0300238
1.260095 0.65337074 2.0486476
1.2269862 0.64445829 2.0267079
1.2227497 0.65067589 2.0526004
1.1983107 0.64616519 2.0443289
1.1668638 0.63770288 2.0232565
1.1599267 0.64258701 2.0447342
1.1429297 0.64195639 2.0484869
1.1324022 0.64499289 2.0639668
1.1071428 0.63960528 2.0521836
1.0686306 0.62629461 2.0145433
1.0750449 0.63930988 2.0621436
1.0327455 0.62331212 2.0153544
1.0291085 0.63051784 2.0440059
1.0072707 0.62662244 2.0363433
0.98811084 0.62429738 2.0336905
0.96615469 0.62010378 2.024771
0.94966382 0.61933941 2.0270135
0.93959957 0.62280983 2.0431602
0.91911107 0.61937112 2.0363891
0.9076916 0.62203079 2.0497329
0.87743235 0.6116491 2.0196428
0.86566752 0.61402178 2.0318503
0.85156322 0.61479008 2.0386503
0.83668447 0.61501712 2.0435679
0.81001759 0.60642713 2.0188324
0.8068589 0.61544472 2.0530834
0.77953434 0.60602176 2.0252748
0.76378393 0.60540396 2.0269735
0.74705863 0.60397315 2.0258386
0.71999854 0.5939585 1.9955462
0.718557 0.60510075 2.036813
0.69785541 0.60015273 2.0234683
0.67738068 0.59518927 2.009938
0.67896903 0.60982186 2.0630655
0.65555507 0.60215276 2.040144
0.63736564 0.599038 2.032635
0.62575102 0.60210133 2.0461719
0.60769546 0.59896559 2.0384068
0.58391422 0.58988887 2.0101361
0.57305455 0.59373564 2.0261412
0.5597176 0.59515029 2.0337338
0.52207905 0.57010424 1.9500412
0.50754631 0.56960005 1.9507724
0.51058894 0.58935392 2.0214412
0.49696478 0.59046483 2.027694
0.47598755 0.58264226 2.0029359
0.46696171 0.58941728 2.0286691
0.44949487 0.58563095 2.0177157
0.43401721 0.58427066 2.015094
0.42346498 0.58967543 2.0359254
0.40549934 0.58477432 2.0208364
0.38577241 0.5768773 1.9952022
0.37446409 0.58144641 2.0129356
0.35788402 0.57786793 2.0021803
0.34599483 0.58188081 2.0178614
0.33282053 0.58398682 2.0268269
0.31494597 0.57766259 2.0062308
0.30063123 0.57757729 2.0073829
0.29036045 0.58563983 2.0370212
0.27328342 0.58010042 2.0189276
0.26011798 0.58271039 2.0293376
0.24349287 0.57742196 2.0119576
0.22928561 0.57756579 2.0135727
0.21719645 0.58341825 2.0351849
0.20131408 0.57918942 2.0212986
0.18897894 0.58529979 2.0437047
0.17073545 0.57260752 1.9998852
0.15780951 0.57706678 2.0163515
0.14283113 0.57416141 2.0068233
0.12897125 0.57560712 2.0125515
0.11471222 0.57540911 2.012423
0.10093759 0.57792854 2.0218065
0.085483752 0.57007957 1.9945709
0.072362959 0.57776201 2.0220284
0.057024993 0.5671677 1.9849671
0.043781452 0.57728791 2.0208983
0.029549429 0.57785583 2.0230727
0.015044029 0.56914288 1.9924394
0.00099550199 0.57569289 2.0155845
-0.013226072 0.57568908 2.0155427
-0.027030986 0.56695008 1.9846195
-0.04099568 0.5663839 1.9824632
-0.050669413 0.52190775 1.8253717
-0.060270634 0.49487936 1.7297896
-0.071810991 0.49020383 1.7129945
-0.084005944 0.49070129 1.7143847
-0.096117206 0.49064618 1.7137696
-0.10858486 0.49221891 1.7188336
-0.12045982 0.49105871 1.7142111
-0.13293767 0.49234366 1.7181438
-0.14507528 0.49225873 1.7171944
-0.15720633 0.49216649 1.7161621
-0.17007999 0.49424538 1.722708
-0.18174791 0.49277666 1.7167197
-0.1937691 0.49239001 1.7144803
-0.20599584 0.49254063 1.7140708
-0.21822675 0.49268371 1.7135767
-0.2303341 0.49254748 1.7120445
-0.24256502 0.49267596 1.7113823
-0.25522006 0.49361244 1.7134912
-0.26880041 0.49617144 1.7212161
-0.28111732 0.49627692 1.7202876
-0.29439822 0.49800414 1.724967
-0.31411162 0.51003766 1.7655649
-0.35804716 0.55895686 1.9347203
-0.38073137 0.57229877 1.9794978
-0.39583075 0.57369244 1.9825116
-0.41970783 0.58727181 2.027844
-0.42701623 0.57753485 1.9919702
-0.44646382 0.5843147 2.0134447
-0.45492056 0.57673609 1.9849957
-0.4764255 0.58565754 2.0137007
-0.49427763 0.58969516 2.0253625
-0.50415671 0.58426183 2.0041814
-0.52263534 0.58881938 2.0174658
-0.53590894 0.58742464 2.0101149
-0.5496127 0.58656275 2.0045371
-0.57000947 0.59270442 2.0229805
-0.57447815 0.58239114 1.984779
-0.6005004 0.59389824 2.0214381
-0.61396343 0.59273171 2.0145068
-0.63021445 0.59424829 2.0166876
-0.64623725 0.59548563 2.0178239
-0.66320461 0.59751892 2.0215847
-0.68086898 0.60007787 2.0270371
-0.68371493 0.589746 1.9885806
-0.70764506 0.5976522 2.0120349
-0.72254986 0.59776866 2.0089409
-0.73612857 0.59680527 2.0021179
-0.75638306 0.60118562 2.013262
-0.77511948 0.60421401 2.0197206
-0.79363871 0.60696203 2.0251195
-0.8097868 0.60782808 2.0240901
-0.82306814 0.6065501 2.01579
-0.83185762 0.60206681 1.9967157
-0.85128421 0.60530448 2.0033743
-0.86247307 0.60267413 1.990379
-0.89171535 0.61253417 2.0188227
-0.91511399 0.61811805 2.0328739
-0.9215824 0.61227077 2.0089667
-0.93871611 0.61358356 2.0086858
-0.95177752 0.61223519 1.9995462
-0.97061324 0.6145851 2.0024896
-0.98996651 0.61718541 2.0061352
-1.0059819 0.61765736 2.0027041
-1.0185113 0.61600691 1.9922665
-1.0344876 0.61645901 1.9886106
-1.0639231 0.62480211 2.0104516
-1.0755405 0.62259239 1.9979423
-1.0994745 0.62747401 2.0082605
-1.1072811 0.62314391 1.988783
-1.1096717 0.61592638 1.9600408
-1.1471282 0.62810433 1.9933783
-1.1715504 0.63291562 2.0029192
-1.1868507 0.63273698 1.9964226
-1.2065877 0.63489765 1.9972628
-1.2238882 0.63573712 1.9938048
-1.240187 0.6360417 1.9885632
-1.2662392 0.64127815 1.9987241
-1.2670351 0.63375241 1.9687432
-1.3000505 0.64232945 1.9890844
-1.3233268 0.64594567 1.9937392
-1.3359965 0.64436013 1.9821128
-1.3523672 0.64457589 1.9760038
-1.3736539 0.64710242 1.9769249
-1.3939139 0.64909279 1.9760666
1.4434354 0.64706296 2.0151861
1.4267259 0.64691788 2.0219636
1.3946067 0.63970119 2.0063069
1.3725718 0.63699472 2.0047138
1.3495547 0.63376266 2.001308
1.3511455 0.6421479 2.034843
1.3001935 0.6254617 1.9881605
1.2869558 0.6267302 1.9987489
1.2684845 0.62544984 2.0010645
1.2607406 0.62949336 2.0204897
1.2386935 0.62640738 2.0167844
1.2242277 0.62712479 2.0253115
1.2092143 0.62757701 2.0329037
1.1985288 0.63031727 2.0479112
1.1757022 0.62666035 2.0418851
1.1336032 0.61249024 2.0010941
1.1202106 0.61365217 2.0105772
1.1072061 0.61506265 2.0208213
1.0932052 0.61595178 2.0292778
1.0732986 0.61349118 2.0265179
1.0588133 0.61410248 2.0338833
1.0324696 0.60775167 2.017884
1.0292734 0.61504042 2.0474422
1.0001994 0.60685223 2.025001
0.97694755 0.60199606 2.0135739
0.96134508 0.60177433 2.0176439
0.92011184 0.58524275 1.9663993
0.93373317 0.60363168 2.033339
0.90662819 0.5958662 2.0115116
0.90899217 0.60753369 2.0557351
0.88481289 0.60155702 2.0397701
0.87105036 0.60257703 2.0475912
0.84540713 0.59526795 2.0267715
0.83498967 0.59860903 2.0423803
0.81797701 0.59725791 2.0417936
0.79155731 0.58885783 2.0167823
0.78480208 0.59504491 2.0420179
0.7655769 0.59183431 2.0347009
0.74351537 0.58625901 2.0190585
0.73211408 0.58903331 2.0322957
0.70559472 0.57950658 2.0026519
0.70138198 0.58828473 2.0366704
0.68144298 0.58396727 2.0249577
0.67038554 0.58723813 2.0396755
0.65447259 0.58630764 2.0396264
0.62943256 0.57696784 2.0099707
0.61072212 0.57312369 1.9994625
0.6044963 0.58109367 2.0304339
0.58665776 0.5780198 2.0224738
0.57156736 0.57756543 2.0236571
0.55623764 0.57683909 2.0238004
0.52312762 0.55713731 1.9566956
0.51386458 0.56244463 1.977978
0.51135796 0.57566047 2.0272985
0.49498096 0.57357943 2.0223138
0.48179618 0.57518339 2.0303462
0.465736 0.57334757 2.0260711
0.45080054 0.57282287 2.0263829
0.434677 0.57070339 2.0209286
0.41904289 0.5691027 2.017241
0.40310678 0.56696314 2.0115452
0.38745365 0.56507838 2.006676
0.37468711 0.5674203 2.0168631
0.35826561 0.56419337 2.0070322
0.34361658 0.56360549 2.0065808
0.32945693 0.56380415 2.0088806
0.31795081 0.56876749 2.0282328
0.30137759 0.56470752 2.0150971
0.28878114 0.56806582 2.028564
0.2752423 0.56982517 2.0362215
0.26124641 0.57078087 2.0409219
0.24352452 0.56323075 2.0148976
0.23158599 0.56894934 2.0366304
0.2152991 0.56403518 2.0199478
0.20304547 0.56973964 2.0415165
0.1871572 0.56533802 2.0265341
0.1720577 0.562787 2.0181575
0.15678658 0.55916309 2.0058281
0.14346018 0.56244379 2.0183899
0.13094349 0.5699724 2.0462582
0.11494481 0.56233239 2.0191925
0.10028414 0.56000257 2.0112636
0.085699193 0.55739784 2.002269
0.071655095 0.55797714 2.0047326
0.057169314 0.55455655 1.9926475
0.043187212 0.55538493 1.9958812
0.029204568 0.55700338 2.0019109
0.015053157 0.55541986 1.9962786
0.0009975218 0.56261033 2.0223601
-0.013183946 0.55967915 2.0117149
-0.027060397 0.55354607 1.9894079
-0.038749319 0.52212369 1.8754543
-0.047918789 0.48138258 1.7277167
-0.059742328 0.47842324 1.7167507
-0.072374038 0.48184261 1.7288219
-0.083776645 0.47727302 1.7119181
-0.096175402 0.47881523 1.7170795
-0.10828962 0.47875404 1.7163817
-0.12073336 0.48001537 1.7204092
-0.13213469 0.47728065 1.7099315
-0.14500225 0.47985655 1.7185944
-0.15730126 0.48029801 1.719483
-0.16877612 0.47834033 1.711651
-0.18155605 0.48009595 1.7171687
-0.19410016 0.48104674 1.7197196
-0.2055504 0.47933432 1.7126082
-0.21787561 0.47973955 1.7130759
-0.23047236 0.48066825 1.715369
-0.24230866 0.47999728 1.7118435
-0.25495115 0.48091114 1.7139621
-0.26822484 0.48287809 1.7198018
-0.27897596 0.48033026 1.7093607
-0.29344967 0.48413682 1.7216746
-0.3069391 0.48607925 1.7272245
-0.31808659 0.48430619 1.7193937
-0.35622266 0.52223068 1.8535862
-0.39550439 0.55905885 1.9835494
-0.41026711 0.55988061 1.984576
-0.42787042 0.56439447 1.9987029
-0.44797012 0.57180279 2.0230458
-0.45903426 0.56757516 2.0058243
-0.47582588 0.57047093 2.0139036
-0.48413783 0.56332934 1.9862231
-0.50165361 0.56699932 1.9969009
-0.52198315 0.57355672 2.0177116
-0.53425223 0.57114208 2.0066276
-0.55119985 0.57372463 2.0131612
-0.5648942 0.57287496 2.0074785
-0.58013409 0.57359624 2.0072696
-0.60003388 0.57877684 2.0226829
-0.61236888 0.5765878 2.0120556
-0.6282981 0.57780606 2.0133393
-0.64602965 0.58058852 2.0200193
-0.66030824 0.58021301 2.0155394
-0.67547321 0.58061576 2.0137076
-0.69002545 0.580486 2.009937
-0.7071026 0.58244127 2.0133545
-0.72426486 0.5843854 2.0166333
-0.74316382 0.58762485 2.0243073
-0.75479996 0.58510715 2.0119154
-0.76870441 0.58441079 2.0057771
-0.79269958 0.59126729 2.0256426
-0.8034938 0.5882057 2.0111675
-0.81955987 0.58904469 2.0100672
-0.83897024 0.59221429 2.0168746
-0.84990215 0.58939296 2.0030415
-0.86982918 0.59279925 2.0104516
-0.88448536 0.59255868 2.0052969
-0.90934682 0.59904915 2.0229695
-0.91931695 0.5956775 2.0069809
-0.9311406 0.59359652 1.9953352
