# .PCD v0.7 - Point Cloud Data file format
VERSION 0.7
FIELDS x y z
SIZE 4 4 4
TYPE F F F
COUNT 1 1 1
WIDTH 1449
HEIGHT 1
VIEWPOINT 0 0 0 1 0 0 0
POINTS 1449
DATA ascii
0.83735466 -0.33631578 2.0457234
0.82308573 -0.33658776 2.0514183
0.80339038 -0.33460975 2.0431976
0.78526479 -0.33322331 2.0384984
0.77279359 -0.33422908 2.0484612
0.75886452 -0.33463144 2.0546353
0.73954886 -0.33262706 2.0458262
0.72563368 -0.33301955 2.0517747
0.71039075 -0.33280629 2.0538881
0.69326925 -0.33168522 2.0502665
0.67346203 -0.32920259 2.0380533
0.65958965 -0.32957524 2.0435538
0.64420044 -0.32918975 2.0442426
0.62999022 -0.32940277 2.0485995
0.61462468 -0.32900751 2.0490687
0.5995605 -0.32875827 2.050374
0.58477867 -0.32865518 2.052521
0.56947279 -0.32824484 2.0526562
0.55419475 -0.32782936 2.0526793
0.53869593 -0.32725739 2.0516343
0.52275401 -0.32637703 2.048558
0.50900638 -0.32685551 2.0539997
0.48878458 -0.32308272 2.0324299
0.48069659 -0.3273446 2.0617194
0.46076977 -0.3235589 2.0398767
0.44619745 -0.32341054 2.0410423
0.431429 -0.32310542 2.0411379
0.41412967 -0.32081866 2.0285354
0.40574673 -0.32552245 2.0604143
0.38487214 -0.32018173 2.0281689
0.36534247 -0.31559306 2.0005999
0.35960501 -0.3230277 2.0497823
0.3418093 -0.31979829 2.0307422
0.32866481 -0.32082924 2.0388818
0.31348228 -0.31987408 2.0342374
0.29895031 -0.31952345 2.0333943
0.28553268 -0.32038844 2.0402808
0.27048379 -0.31941763 2.0353217
0.25710911 -0.32042593 2.0430028
0.24190548 -0.31913951 2.0358756
0.22844699 -0.32013854 2.0433714
0.21346554 -0.31899428 2.0370178
0.19810495 -0.31708053 2.0256388
0.18557213 -0.31974632 2.0436749
0.17140761 -0.31980938 2.0448925
0.15693441 -0.31925589 2.0420721
0.14175585 -0.31701505 2.0283065
0.12745163 -0.31645098 2.0252802
0.1139631 -0.31802341 2.0359688
0.099901222 -0.31821436 2.0376856
0.085573591 -0.31748226 2.0333817
0.071344294 -0.31689811 2.0299673
0.056474522 -0.31248313 2.0017586
0.042350773 -0.31066436 1.9902405
0.02677032 -0.29124051 1.8649912
0.012114731 -0.25497565 1.630928
0.00079064624 -0.2543658 1.6270194
-0.010479107 -0.25375187 1.6230334
-0.021772696 -0.25405219 1.6248997
-0.033012792 -0.25373641 1.6227367
-0.044544604 -0.25525293 1.6323516
-0.055808205 -0.2549291 1.630034
-0.067162864 -0.25506026 1.6306019
-0.078433774 -0.25488138 1.629118
-0.089795128 -0.2550045 1.629531
-0.10104453 -0.25481772 1.6278936
-0.11214074 -0.2543211 1.6242079
-0.12341361 -0.2542794 1.6234045
-0.13484268 -0.25453949 1.6244938
-0.14602923 -0.25433701 1.6225512
-0.15785709 -0.25520036 1.6274189
-0.16935362 -0.25544825 1.6282694
-0.18032904 -0.25492838 1.6241285
-0.19171475 -0.25501567 1.6238413
-0.20298353 -0.25494638 1.6224949
-0.21488434 -0.25563627 1.6259713
-0.22630252 -0.25571159 1.6254457
-0.23744024 -0.25547794 1.6228851
-0.24914752 -0.25585049 1.6241577
-0.26150444 -0.25682858 1.6292516
-0.2724863 -0.25643089 1.6254787
-0.28376612 -0.25633425 1.6235807
-0.29433191 -0.25562492 1.6177152
-0.30646876 -0.25628203 1.6205257
-0.31997916 -0.25799966 1.6300377
-0.32933801 -0.25636679 1.6181265
-0.34218475 -0.25746742 1.6235803
-0.35407946 -0.25780371 1.6241041
-0.36728996 -0.25904694 1.6303303
-0.37771872 -0.25831228 1.6239314
-0.38967749 -0.25863647 1.6241984
-0.40941924 -0.26395991 1.6560611
-0.50650042 -0.31746137 1.9925095
-0.53024602 -0.32334515 2.0272729
-0.54531747 -0.32376873 2.0274227
-0.55937177 -0.32358205 2.0236483
-0.57420605 -0.3238447 2.0226326
-0.59180093 -0.32561335 2.0310047
-0.60447961 -0.32465723 2.0221727
-0.6162039 -0.32324508 2.0104258
-0.63250452 -0.32424313 2.0137141
-0.64467263 -0.32312539 2.0036898
-0.6413765 -0.31447414 1.9466107
-0.67716044 -0.32494462 2.0087407
-0.69878882 -0.32832718 2.0265071
-0.71579909 -0.32944602 2.0300734
-0.72856611 -0.32860619 2.0213997
-0.74260861 -0.32836333 2.0163612
-0.75454497 -0.32721645 2.0056679
-0.77271229 -0.32876402 2.0115352
-0.79530299 -0.33210126 2.0283039
-0.81159729 -0.33273563 2.0283155
-0.82533467 -0.33231783 2.0217834
-0.83978009 -0.33219469 2.0169857
-0.85266727 -0.3314701 2.0084398
-0.87016326 -0.33253139 2.0107143
-0.89170086 -0.33507594 2.0219009
-0.90739805 -0.33537832 2.0193381
-0.91574526 -0.33299825 2.0004482
-0.93882746 -0.3359668 2.0138488
-0.95792931 -0.3374404 2.0180783
-0.97029775 -0.33653322 2.0078719
-0.97736996 -0.33384448 1.9869248
-1.0114813 -0.340334 2.0208905
-1.0247025 -0.33970699 2.0121093
-1.0360465 -0.33848488 1.9997219
-1.0504814 -0.33829314 1.9934083
-1.0560598 -0.33529487 1.9703974
-1.0491424 -0.3284677 1.924783
-1.0530832 -0.32518068 1.9001608
-1.0625277 -0.32365912 1.8859373
-1.0767154 -0.32360366 1.8802743
-1.068627 -0.3169429 1.835952
-1.0574764 -0.3095589 1.7875657
-1.0720413 -0.30979553 1.7836119
-1.0712367 -0.30564106 1.7541528
-1.073705 -0.30251262 1.7306892
-1.0874314 -0.30259424 1.725736
-1.0677599 -0.29349384 1.6680413
-1.0607336 -0.28804678 1.6314981
-1.0467541 -0.28086382 1.5851966
-1.0781558 -0.28588325 1.6084074
-1.0966607 -0.28740594 1.6115673
-1.0951487 -0.28370807 1.5851496
1.4097795 -0.37649608 2.0084074
1.3944746 -0.37668589 2.0164952
1.3774663 -0.3764146 2.022011
1.3478491 -0.37265086 2.0084662
1.3499358 -0.37766731 2.0425458
1.3274783 -0.37585509 2.0393894
1.2955841 -0.37129447 2.0210102
1.2792323 -0.37113038 2.0265775
1.2649448 -0.37156862 2.0353792
1.2270044 -0.36498216 2.0052218
1.2265667 -0.36952537 2.0365617
1.2132269 -0.37024903 2.0466955
1.180993 -0.36514989 2.0242436
1.1672372 -0.36570418 2.0332127
1.1621161 -0.36901534 2.0576024
1.1419232 -0.36756581 2.0551932
1.1138159 -0.36349308 2.0378373
1.1097313 -0.3672559 2.0646517
1.0828401 -0.36347073 2.0486321
1.0548719 -0.3592093 2.029705
1.0299063 -0.35586002 2.0157773
1.0184112 -0.3571347 2.0281301
0.99984634 -0.35593131 2.026222
0.98564619 -0.35626858 2.033057
0.97604805 -0.35830572 2.0496159
0.95836937 -0.35739407 2.049113
0.93296462 -0.35352546 2.0313842
0.90947133 -0.35026631 2.0170105
0.90410256 -0.35399514 2.0431094
0.89138305 -0.35492343 2.0529003
0.86895907 -0.35195306 2.0398662
0.85281706 -0.35146761 2.0412209
0.83521426 -0.35035199 2.0387897
0.82025015 -0.35032287 2.0426362
0.79773092 -0.34700626 2.0270526
0.78994244 -0.35009319 2.049078
0.76837456 -0.34707448 2.0350218
0.75384629 -0.34717965 2.0393114
0.73963296 -0.3474369 2.0444272
0.72702497 -0.34847412 2.0541027
0.71528459 -0.34997904 2.0665038
0.69649297 -0.34802449 2.0582445
0.6793927 -0.34684858 2.0545175
0.66328442 -0.34613818 2.0534749
0.64545572 -0.34447733 2.046654
0.62948638 -0.34375477 2.0453532
0.61413223 -0.34334177 2.0458236
0.59935462 -0.34323883 2.0480769
0.58484632 -0.34328887 2.0511749
0.56953883 -0.34286031 2.0513158
0.55195713 -0.34100422 2.0427604
0.5367651 -0.34056416 2.042661
0.51602238 -0.33648032 2.0204368
0.50623345 -0.33950979 2.0411716
0.48677918 -0.33604479 2.0224919
0.47362283 -0.33684936 2.0296161
0.46212167 -0.33891803 2.0443628
0.44708872 -0.33844626 2.0436101
0.43026328 -0.33654109 2.0340524
0.41830045 -0.33843911 2.0475852
0.40465602 -0.33906335 2.0532987
0.38510194 -0.33459908 2.0278759
0.37137935 -0.33505341 2.0323989
0.35524046 -0.33327699 2.0232136
0.34315303 -0.33531195 2.0372753
0.32683104 -0.33320612 2.0259209
0.32039085 -0.34144053 2.0778732
0.30027008 -0.33518517 2.040935
0.28529474 -0.3343364 2.0370686
0.27051616 -0.33364132 2.0340731
0.25713944 -0.33469394 2.0417483
0.24262857 -0.33430722 2.040513
0.2262948 -0.3312043 2.0224969
0.21216238 -0.33112535 2.023011
0.20003778 -0.3343915 2.0440619
0.18541653 -0.33366463 2.0404623
0.16929811 -0.32989988 2.0180686
0.15560046 -0.33059824 2.023113
0.1413628 -0.33017409 2.021172
0.12888338 -0.33421579 2.0467198
0.11397661 -0.33218461 2.0347373
0.099913023 -0.33238396 2.0364528
0.085831143 -0.332578 2.0380723
0.071766086 -0.33292669 2.0405829
0.056702849 -0.32767841 2.0084608
0.04291933 -0.32881522 2.0157087
0.027126219 -0.30821687 1.8886241
0.01220483 -0.26827833 1.641983
0.00078940799 -0.26524481 1.6232717
-0.010513211 -0.26588216 1.6271869
-0.021909012 -0.26699463 1.633986
-0.033259556 -0.26698443 1.6337981
-0.044581827 -0.26681024 1.6325456
-0.055787951 -0.26615259 1.6282564
-0.067057952 -0.26597011 1.626851
-0.078546517 -0.26658207 1.630299
-0.090139531 -0.26734945 1.6346529
-0.10137174 -0.26699466 1.6320288
-0.11270683 -0.26695514 1.6312985
-0.12336902 -0.26547471 1.6216315
-0.1355226 -0.2671828 1.6315738
-0.14694154 -0.26729038 1.6315938
-0.1581782 -0.26707467 1.62957
-0.16959642 -0.26717395 1.6294342
-0.18166833 -0.26822588 1.6351076
-0.19210497 -0.26688173 1.6259853
-0.20376128 -0.26728749 1.627575
-0.2146792 -0.26673287 1.62321
-0.2258167 -0.26649311 1.6207287
-0.23820575 -0.26768264 1.6269656
-0.250543 -0.26870817 1.6321338
-0.26249743 -0.26925159 1.6342856
-0.27465543 -0.26994964 1.6373252
-0.28804782 -0.27175626 1.6470854
-0.30088687 -0.27292165 1.6528535
-0.32127827 -0.28059652 1.69831
-0.33646318 -0.28333738 1.713521
-0.35265434 -0.28670681 1.7324759
-0.37316141 -0.29324269 1.7706188
-0.39713079 -0.30198884 1.8220726
-0.42010513 -0.30945414 1.8655715
-0.44147941 -0.31532323 1.8992195
-0.46813551 -0.32450771 1.9528339
-0.48544332 -0.3268716 1.9649346
-0.51285011 -0.33571479 2.0161424
-0.5313037 -0.338377 2.0297937
-0.54461938 -0.33771282 2.0232539
-0.5597018 -0.33815008 2.023293
-0.5734725 -0.33779287 2.0184693
-0.58693087 -0.33727369 2.0126047
-0.60342926 -0.3384845 2.0170641
-0.61656839 -0.33779842 2.010056
-0.63464135 -0.33978522 2.0189896
-0.64595592 -0.33814555 2.006134
-0.66296029 -0.33949104 2.0110526
-0.68508267 -0.34334418 2.0308166
-0.69951206 -0.34326145 2.0270128
-0.71294552 -0.34270337 2.0203111
-0.72565722 -0.34182769 2.0116608
-0.74982274 -0.34627584 2.0344684
-0.75740218 -0.34304056 2.0117028
-0.7713964 -0.34277803 2.0064635
-0.79682851 -0.3475135 2.0305786
-0.81059569 -0.3470819 2.0241473
-0.82357407 -0.34633398 2.0157919
-0.83572465 -0.34527037 2.0055277
-0.85276639 -0.34622929 2.007024
-0.87104326 -0.34764865 2.0111029
-0.89219642 -0.35014945 2.0213578
-0.90186185 -0.34813368 2.0052552
-0.92443538 -0.35108536 2.0178926
-0.93851513 -0.35076869 2.0114875
-0.95424044 -0.3510673 2.0085571
-0.96484524 -0.34950188 1.9948164
-0.9818154 -0.35025474 1.9943403
-0.99443209 -0.34945521 1.9848768
-1.0181184 -0.352512 1.9973739
-1.0384145 -0.3543233 2.0026088
-1.0478411 -0.35242698 1.9866472
-1.0519943 -0.34883553 1.9610556
-1.0647835 -0.34816775 1.9520124
-1.0527321 -0.33950713 1.8978666
-1.0621732 -0.33791846 1.8836532
-1.0734254 -0.33694065 1.8728353
-1.0885375 -0.33718419 1.8687963
-1.0796355 -0.33007964 1.8237298
-1.0701629 -0.32298511 1.7788764
-1.0800953 -0.32185277 1.7672067
-1.0707535 -0.31507719 1.724342
-1.0634899 -0.30907297 1.6858829
-1.0695181 -0.30703112 1.6693031
-1.0475212 -0.29709026 1.6095222
-1.0550601 -0.29566321 1.5964413
-1.0673937 -0.29559749 1.5907423
-1.0879935 -0.29779592 1.5972412
-1.103152 -0.29847157 1.5953748
1.4166168 -0.39440718 2.0162754
1.4029223 -0.39508039 2.026854
1.3891507 -0.39574733 2.0373406
1.3457266 -0.3878831 2.0033662
1.3472893 -0.39295265 2.0365739
1.3264724 -0.39153847 2.0359035
1.3152803 -0.39296538 2.0500336
1.2777326 -0.38645616 2.0222819
1.2401229 -0.37976533 1.9932696
1.2388808 -0.38418308 2.0228922
1.226137 -0.38510159 2.0339527
1.2128025 -0.38585594 2.0440822
1.1929557 -0.38453099 2.0430198
1.1707424 -0.38239777 2.037493
1.1525337 -0.38153264 2.0386438
1.141526 -0.38306028 2.0526021
1.1233196 -0.38218114 2.0534923
1.0963275 -0.3782461 2.0376852
1.0916413 -0.38200432 2.06355
1.0708059 -0.38013837 2.0587494
1.0536686 -0.37954974 2.0607998
1.0405247 -0.38040352 2.0706599
1.0055809 -0.3731927 2.0361261
0.99129909 -0.37354621 2.0430009
0.97866362 -0.37454084 2.0533431
0.96427393 -0.37488496 2.0600271
0.93878454 -0.37085539 2.0423691
0.92165923 -0.37005213 2.0424707
0.89584643 -0.36567593 2.0225589
0.88052076 -0.3655048 2.0259473
0.86942559 -0.36711407 2.0392163
0.85327619 -0.3666082 2.04058
0.84310466 -0.36869848 2.0564411
0.82288814 -0.36639211 2.0475137
0.80355847 -0.36440265 2.0402443
0.79037142 -0.36517626 2.04847
0.77364844 -0.36431453 2.0473733
0.75392151 -0.36197677 2.0378084
0.72669387 -0.35587242 2.0067165
0.71891528 -0.35923785 2.0293293
0.70797485 -0.36113045 2.0435333
0.69624662 -0.36269316 2.0558121
0.67884398 -0.36130354 2.0511565
0.65822679 -0.35810336 2.0360279
0.64817506 -0.36063653 2.0536613
0.62897372 -0.35807833 2.0420094
0.61391294 -0.35781181 2.0434265
0.59748816 -0.356718 2.0399978
0.58544314 -0.35824966 2.0516262
0.56776077 -0.35632181 2.0432179
0.55533803 -0.35768026 2.0537181
0.53358227 -0.35293868 2.0288329
0.51535082 -0.35032991 2.0161774
0.50675786 -0.35431144 2.0416768
0.4999027 -0.35977733 2.0757856
0.47790456 -0.35434589 2.0464835
0.45828018 -0.35039067 2.0256407
0.44357458 -0.3500627 2.0258305
0.43314767 -0.3532019 2.0461841
0.41736263 -0.35203755 2.0413601
0.40033922 -0.34970847 2.0296431
0.3851431 -0.3488625 2.0265131
0.36912918 -0.34718248 2.0184202
0.35527879 -0.34748444 2.0218632
0.34188703 -0.34827873 2.0281303
0.32842618 -0.34906846 2.0343101
0.31310508 -0.34786299 2.0287054
0.29773441 -0.34648541 2.0220118
0.28559613 -0.3489196 2.0376694
0.2698988 -0.34703293 2.0278382
0.25679865 -0.34846169 2.0374596
0.24149697 -0.34689546 2.0293708
0.22882402 -0.34914526 2.0437112
0.21545413 -0.35055968 2.0530701
0.19862708 -0.3461504 2.027992
0.1866765 -0.35021481 2.0528691
0.17152694 -0.34845406 2.0432849
0.15554188 -0.34452456 2.0208097
0.14342783 -0.34924036 2.0493665
0.12809613 -0.34629738 2.032582
0.11448138 -0.34784186 2.0422688
0.099683322 -0.34571925 2.0301979
0.085881144 -0.34692022 2.0377262
0.071429156 -0.34545228 2.0293949
0.057455219 -0.34614304 2.0337765
0.042569552 -0.34000182 1.997645
0.02708785 -0.32086682 1.8845052
0.012301944 -0.28191021 1.6539185
0.00079623982 -0.27891541 1.6362144
-0.010559759 -0.27841395 1.6332229
-0.021992471 -0.27940679 1.639028
-0.033048011 -0.27656552 1.6220797
-0.044698406 -0.27888152 1.6356156
-0.055934247 -0.27819619 1.6313299
-0.067314446 -0.27833891 1.6318947
-0.078705058 -0.27847725 1.6323818
-0.090159349 -0.27877763 1.6337752
-0.10260624 -0.28173625 1.6508371
-0.11488803 -0.28369123 1.6619028
-0.12784614 -0.28680575 1.6797619
-0.1410556 -0.28991473 1.6975218
-0.15556802 -0.29501367 1.7269666
-0.16935906 -0.29811078 1.7445136
-0.18501854 -0.30386159 1.7776477
-0.20157419 -0.31026983 1.8145697
-0.21635276 -0.31334722 1.8317602
-0.23417118 -0.32023853 1.8713418
-0.2517758 -0.32612476 1.9048988
-0.26283753 -0.32337052 1.8875061
-0.28316256 -0.33173174 1.9354393
-0.29941243 -0.33477387 1.9519848
-0.31590378 -0.33780894 1.9683992
-0.33619499 -0.34448391 2.0060818
-0.34927014 -0.34352592 1.998881
-0.36436459 -0.34455144 2.0032439
-0.37626287 -0.34259057 1.9900473
-0.39195633 -0.34410194 1.9971119
-0.40737534 -0.34527624 2.0021231
-0.42570853 -0.3487595 2.0205321
-0.43743503 -0.34678 2.0069745
-0.45609546 -0.35024929 2.0251153
-0.46815279 -0.34859109 2.0133038
-0.48532307 -0.35072559 2.0234914
-0.49607733 -0.348234 2.0067182
-0.51314789 -0.35019162 2.0157132
-0.53011936 -0.35197738 2.0236149
-0.54493284 -0.35227397 2.0228033
-0.55950063 -0.35240057 2.0209334
-0.57353473 -0.35219306 2.017061
-0.58672082 -0.3514877 2.0102503
-0.60321373 -0.35274979 2.0147007
-0.62037331 -0.35433382 2.0209079
-0.63353372 -0.35361362 2.0137916
-0.65143555 -0.35551295 2.0216238
-0.6716271 -0.35855204 2.0358682
-0.6892283 -0.36010814 2.0415123
-0.69894522 -0.35756588 2.0236802
-0.7120415 -0.35682106 2.0160525
-0.72606736 -0.35656258 2.0111277
-0.73938406 -0.35597283 2.004252
-0.75644529 -0.35717383 2.0074539
-0.78027683 -0.36146581 2.0280285
-0.79404128 -0.36102149 2.0217102
-0.80192482 -0.35796824 2.0006299
-0.82439959 -0.36142099 2.016108
-0.84033865 -0.36193749 2.0149598
-0.85208565 -0.36066177 2.0036874
-0.87814909 -0.36538628 2.0258868
-0.89228237 -0.36507192 2.019805
-0.90839064 -0.36556268 2.0181289
-0.92166215 -0.36491445 2.0100386
-0.93362504 -0.36377692 1.9991745
-0.94969785 -0.36425132 1.9971653
-0.95895523 -0.36213738 1.9807957
-0.98797756 -0.36743829 2.0051768
-1.0011218 -0.3667638 1.9965564
-1.0173194 -0.3672114 1.9940132
-1.0244967 -0.36443713 1.973791
-1.0497675 -0.36808661 1.9885372
-1.0623031 -0.36723062 1.9786347
-1.0658237 -0.36332542 1.9521627
-1.0642705 -0.35782135 1.9170898
-1.0627676 -0.35248291 1.882993
-1.0779332 -0.35274145 1.8790385
-1.0693793 -0.34533355 1.8339428
-1.0807586 -0.34447151 1.8239535
-1.0702943 -0.33675879 1.7774436
-1.0797164 -0.33541927 1.7649335
-1.0765914 -0.33026418 1.7322034
-1.0693997 -0.32400441 1.693743
-1.068611 -0.31981373 1.6662997
-1.0610698 -0.31372759 1.6289933
-1.0525213 -0.30749223 1.5910469
-1.0637327 -0.30710849 1.5837191
-1.0760001 -0.307035 1.5779493
-1.1072245 -0.31231034 1.5997796
1.3929369 -0.40363061 1.98032
1.4001632 -0.41038427 2.0208101
1.3604189 -0.40336806 1.9928917
1.3304447 -0.39911777 1.9784709
1.3327055 -0.40455148 2.0123658
1.3136559 -0.40356922 2.0140929
1.2782153 -0.39746624 1.98987
1.2709714 -0.4000887 2.0095286
1.2692215 -0.40452766 2.0384107
1.2363774 -0.3990432 2.0168107
1.2292365 -0.4018203 2.037158
1.2043483 -0.39879292 2.0277679
1.1846045 -0.39741167 2.0266607
1.1693393 -0.39751616 2.0330851
1.1540468 -0.39761403 2.0393941
1.1439734 -0.39953735 2.0550821
1.1238544 -0.39795703 2.0525339
1.0871003 -0.39035875 2.0185015
1.0733572 -0.39092442 2.026825
1.0636296 -0.39299008 2.042937
1.0403395 -0.39003175 2.0326405
1.0264974 -0.39058015 2.0406427
1.0082572 -0.38944632 2.0396993
0.99094105 -0.38864011 2.0403771
0.97662258 -0.38900274 2.0471494
0.95976883 -0.38835099 2.0484579
0.94376791 -0.38802892 2.0514238
0.92213219 -0.38534161 2.0416741
0.90623975 -0.38500476 2.0443549
0.88215518 -0.38111728 2.0279102
0.86834157 -0.38160971 2.0348289
0.85183227 -0.38091391 2.0352817
0.83647823 -0.38071913 2.0383425
0.82770479 -0.38356683 2.0577633
0.80506122 -0.37997338 2.0422833
0.79184687 -0.38077879 2.0505166
0.77094138 -0.37784564 2.0383668
0.75330585 -0.37643161 2.0343525
0.73476589 -0.37450019 2.0274112
0.72715634 -0.3781746 2.0509875
0.70418727 -0.37384766 2.0307608
0.69630462 -0.37751627 2.0542128
0.68013251 -0.37675232 2.0533142
0.65888739 -0.37308198 2.0363421
0.64911437 -0.37588829 2.0549052
0.63075846 -0.37373936 2.0461061
0.61396664 -0.37243703 2.0418742
0.59891725 -0.37215406 2.0431862
0.58011949 -0.36946964 2.0311179
0.57226723 -0.37379724 2.0578282
0.5461846 -0.36613163 2.0179224
0.52939796 -0.36445194 2.0111215
0.5175814 -0.36619565 2.0232849
0.50468034 -0.36724952 2.0315554
0.49306652 -0.36932948 2.0454936
0.48351172 -0.37312418 2.0689654
0.4622103 -0.3678081 2.0414617
0.44340622 -0.36420101 2.023392
0.43359098 -0.36798275 2.0466156
0.41896811 -0.36780411 2.0475969
0.40283793 -0.36624235 2.0407414
0.38773662 -0.3655352 2.0386031
0.37638158 -0.36844102 2.0567081
0.36090052 -0.36737862 2.0524359
0.34110492 -0.36165336 2.0218194
0.32627219 -0.3609218 2.0192366
0.31387979 -0.36294571 2.0321252
0.29918733 -0.36237589 2.0303206
0.28548566 -0.3630091 2.0352407
0.26876146 -0.35966402 2.017611
0.25376248 -0.35838503 2.0115781
0.23978451 -0.35848275 2.013262
0.22579549 -0.35857502 2.0148506
0.211796 -0.35866183 2.0163431
0.20160133 -0.36566207 2.0569522
0.18704663 -0.36522034 2.0553362
0.17145988 -0.36252329 2.0408595
0.15818375 -0.36466569 2.0537655
0.14125423 -0.35797498 2.0164773
0.12773831 -0.35941359 2.0252569
0.11361518 -0.35928866 2.0250971
0.099932075 -0.36071661 2.033694
0.085188337 -0.35815597 2.0195673
0.070884936 -0.35680154 2.0122261
0.056990642 -0.3573468 2.0156155
0.043177985 -0.35892591 2.0248187
0.028650966 -0.35322362 1.9925674
0.014004029 -0.33400291 1.883397
0.0008900126 -0.32447776 1.8292795
-0.011830866 -0.3246488 1.8302269
-0.024892299 -0.32914561 1.8557076
-0.038146406 -0.33225113 1.8732178
-0.052069858 -0.3381227 1.9063872
-0.065515399 -0.33913842 1.9118925
-0.079964891 -0.34413213 1.9399383
-0.093487293 -0.34427062 1.9403303
-0.10938632 -0.3520225 1.9839008
-0.12401221 -0.35439986 1.9968699
-0.1372728 -0.35278964 1.9871331
-0.15136872 -0.35342443 1.9900781
-0.16543084 -0.35388052 1.991943
-0.18075308 -0.35675311 2.0074446
-0.19516376 -0.35754332 2.0110657
-0.20740713 -0.35452306 1.9930314
-0.22351241 -0.35806879 2.0121281
-0.23633601 -0.35624892 2.0007727
-0.25241333 -0.35926303 2.0167069
-0.26436466 -0.35639644 1.9993116
-0.2790556 -0.35732555 2.0033143
-0.29296494 -0.35721281 2.0013628
-0.30641592 -0.35657698 1.9963948
-0.32182795 -0.35817912 2.0039837
-0.33849153 -0.36098215 2.0182579
-0.35452554 -0.36291572 2.0275464
-0.36545074 -0.35967222 2.0076301
-0.37811852 -0.35832095 1.9983109
-0.39256054 -0.35868758 1.9985834
-0.40643954 -0.35853213 1.9958559
-0.42695901 -0.36404917 2.0248525
-0.44310471 -0.36560073 2.0315175
-0.45957854 -0.36731735 2.0390184
-0.4717443 -0.36559102 2.0271926
-0.48285684 -0.36317432 2.0114644
-0.49870929 -0.36435899 2.0157723
-0.51271349 -0.36416495 2.0123177
-0.52942425 -0.36585176 2.0192544
-0.54523802 -0.36684614 2.0222507
-0.56686717 -0.37160155 2.0460253
-0.57037526 -0.3645373 2.0041754
-0.5881483 -0.36671245 2.0134764
-0.60579818 -0.368709 2.0216842
-0.61899364 -0.36796454 2.0146651
-0.63329911 -0.36789873 2.0113235
-0.64608866 -0.36697486 2.0031886
-0.67076576 -0.37269628 2.0314922
-0.68521476 -0.37261194 2.0277865
-0.70284534 -0.37422511 2.0332992
-0.70917064 -0.369876 2.0061207
-0.73444968 -0.37538865 2.0327532
-0.73674035 -0.36916575 1.9952861
-0.75513268 -0.37109539 2.0021873
-0.78175133 -0.37691838 2.0301025
-0.79554307 -0.37645569 2.0237749
-0.80783039 -0.3753109 2.0136905
-0.82261652 -0.37534723 2.0099249
-0.83324403 -0.37351811 1.9960345
-0.86098093 -0.3792893 2.0229514
-0.86847562 -0.37609866 2.0015986
-0.889979 -0.3789798 2.0127323
-0.90725726 -0.37999675 2.0137653
-0.92051166 -0.37932271 2.0056844
-0.93743539 -0.38015807 2.0055637
-0.94977576 -0.37913769 1.9954995
-0.96757984 -0.3802962 1.9969097
-0.98242033 -0.38027245 1.9919692
-0.99812287 -0.3805781 1.9886836
-1.0075933 -0.37853348 1.9729633
-1.0318061 -0.38200623 1.9861251
-1.0438937 -0.38095468 1.975469
-1.0359391 -0.37272185 1.9273295
-1.0527484 -0.37350389 1.9262012
-1.0653129 -0.37277916 1.9171602
-1.0590079 -0.36556035 1.8744878
-1.0721734 -0.36516562 1.8671268
-1.0724481 -0.36044878 1.8374823
-1.0888636 -0.36120883 1.8359746
-1.0865973 -0.35583159 1.8030041
-1.080857 -0.34946749 1.7650956
-1.0793029 -0.34459913 1.7349089
-1.0763363 -0.33940566 1.7031575
-1.071394 -0.33372357 1.6690345
-1.0596083 -0.32607257 1.6251203
-1.0624104 -0.32303953 1.6045462
-1.0649786 -0.32000765 1.5840122
-1.0838867 -0.32189906 1.5880383
-1.0995557 -0.32279602 1.5869982
1.3732047 -0.41350502 1.9500036
1.3593913 -0.41404676 1.9594694
1.3576802 -0.41833019 1.986781
1.3266476 -0.41357341 1.9707365
1.3094478 -0.4130671 1.974938
1.289578 -0.41169623 1.9748621
1.2824955 -0.41442397 1.9945399
1.2778238 -0.41800767 2.0183847
1.2552625 -0.41575572 2.0137739
1.2430806 -0.41692793 2.0257759
1.2216786 -0.41499826 2.0224965
1.2119011 -0.41701847 2.0385311
1.180199 -0.41144836 2.017046
1.1674315 -0.41241875 2.0277193
1.1531283 -0.41286567 2.0357358
1.1387751 -0.41330656 2.0436509
1.1271962 -0.41478065 2.0566549
1.0973766 -0.4094896 2.0357282
1.0816655 -0.40938723 2.0406356
1.0704688 -0.4110153 2.0541701
1.0493212 -0.4088144 2.0483336
1.0230302 -0.40451404 2.0317328
1.0083123 -0.40472895 2.0378485
0.9922803 -0.40441477 2.0411963
0.97709906 -0.40444303 2.0461996
0.94985145 -0.39939842 2.0252028
0.9389109 -0.40115863 2.0388527
0.92138231 -0.40011555 2.0380747
0.90788281 -0.40081653 2.0461624
0.8904146 -0.3997595 2.0451229
0.86801428 -0.39641356 2.0321567
0.85075504 -0.39533943 2.0307975
0.8369056 -0.39583975 2.0375013
0.81241488 -0.39123371 2.0176015
0.80511546 -0.39488924 2.0405428
0.78696316 -0.39325911 2.035907
0.77203369 -0.39320782 2.0394118
0.75369918 -0.39138636 2.0335701
0.74148768 -0.39273521 2.0442433
0.72033954 -0.38930923 2.0297794
0.71000874 -0.39170858 2.0458319
0.68818593 -0.38773507 2.0282593
0.68017954 -0.39154243 2.05162
0.65471947 -0.38524866 2.021559
0.64031935 -0.38532487 2.0250523
0.62676924 -0.385928 2.0312669
0.61372972 -0.38688162 2.0392776
0.60391313 -0.38996285 2.0585437
0.58284932 -0.38575399 2.0389564
0.57073498 -0.38740441 2.0504808
0.53677475 -0.37392342 1.9811608
0.53068513 -0.37965387 2.0142949
0.51374435 -0.37772384 2.006429
0.50707608 -0.38345185 2.0395064
0.49195671 -0.38293779 2.0390942
0.47931638 -0.3843807 2.0491152
0.46375564 -0.38349855 2.0465806
0.44992808 -0.38403901 2.0516219
0.43341979 -0.38225114 2.0440545
0.42037013 -0.38349551 2.0527503
0.40419272 -0.38187358 2.0459166
0.38739997 -0.37952885 2.0350926
0.37359223 -0.38004085 2.0396247
0.3577095 -0.37839866 2.0324347
0.34373292 -0.37872028 2.0357983
0.32614177 -0.37491459 2.0167258
0.3134557 -0.37665808 2.0276554
0.30049211 -0.37821782 2.0375335
0.28523517 -0.37690267 2.0317411
0.27110505 -0.37701654 2.0336392
0.2572071 -0.37748376 2.0373931
0.24269256 -0.37704781 2.0361691
0.22951318 -0.37876099 2.046576
0.21467063 -0.37777472 2.0422227
0.20113839 -0.37911797 2.0504928
0.18723658 -0.37991691 2.0557356
0.17106311 -0.37585697 2.0344172
0.15586819 -0.37340781 2.0218043
0.14324515 -0.3772454 2.0434277
0.12873195 -0.37640256 2.0394475
0.11455413 -0.37645301 2.0402775
0.10027502 -0.3761377 2.0390453
0.085194819 -0.37221855 2.0180593
0.071303204 -0.37297064 2.0225248
0.057409238 -0.37407696 2.0288634
0.042597953 -0.36797985 1.9957689
0.02903256 -0.37195352 2.0176513
0.015014792 -0.37214261 2.018785
0.00097942178 -0.37106624 2.0129378
-0.013012431 -0.37106368 2.0128963
-0.027016768 -0.37123534 2.0137436
-0.040894244 -0.3701416 2.0076108
-0.055008348 -0.37120128 2.0131838
-0.068365112 -0.36775705 1.9940816
-0.082386196 -0.36844543 1.9974993
-0.097632825 -0.37362507 2.0253844
-0.10998721 -0.36782596 1.9932393
-0.12499127 -0.37119457 2.0110965
-0.13957354 -0.37275821 2.0190287
-0.15382658 -0.37323695 2.0209713
-0.16770872 -0.37281099 2.0179131
-0.17989121 -0.36896473 1.9961449
-0.19517912 -0.37158287 2.009558
-0.21055952 -0.37401456 2.0218782
-0.22471672 -0.37410462 2.0213714
-0.23715766 -0.3714956 2.0061116
-0.25267574 -0.3737289 2.0171368
-0.26477063 -0.37093058 2.0007339
-0.27894348 -0.37117818 2.0008287
-0.29298896 -0.37124059 1.9998511
-0.30836877 -0.37291101 2.0075305
-0.32417864 -0.37493309 2.0170364
-0.33948803 -0.37623158 2.0225396
-0.352869 -0.37537441 2.0162973
-0.36775586 -0.37612358 2.0186818
-0.38069409 -0.37489808 2.0103216
-0.39391193 -0.37402588 2.0038126
-0.40393814 -0.37028822 1.9817884
-0.42578188 -0.37727141 2.0175035
-0.4404299 -0.37763333 2.0174332
-0.4555282 -0.37834656 2.0191784
-0.47045103 -0.37887514 2.0198538
-0.4810701 -0.37600875 2.0022357
-0.49757496 -0.37777516 2.0094128
-0.51347888 -0.37899968 2.0135968
-0.52971381 -0.38039559 2.0186102
-0.53738898 -0.37573302 1.9911786
-0.55829108 -0.38032052 2.0130754
-0.57336634 -0.38080823 2.0129983
-0.58956611 -0.38200074 2.0165908
-0.5996688 -0.37928006 1.9993061
-0.61961699 -0.38276821 2.0149231
-0.63423061 -0.38287717 2.0125146
-0.65454793 -0.38634789 2.0278091
-0.66652131 -0.38484961 2.0167344
-0.68432623 -0.38671064 2.0233197
-0.704175 -0.38962486 2.035341
-0.71150881 -0.38563687 2.010967
-0.72086996 -0.3828854 1.9930743
-0.73917168 -0.38489747 2.0000999
-0.75311959 -0.38460869 1.994985
-0.77899319 -0.39030603 2.0210321
-0.79380965 -0.39035472 2.0174747
-0.8053385 -0.38881439 2.0055783
-0.81896901 -0.38832569 1.9990908
-0.83707726 -0.38994005 2.0034235
-0.84838867 -0.38838708 1.9912792
-0.86191404 -0.38788322 1.9844986
-0.89241546 -0.39490834 2.016387
-0.90369862 -0.39333799 2.0039127
-0.93037599 -0.39841062 2.0254219
-0.93625385 -0.39455661 2.0011113
-0.96036077 -0.39838517 2.0159841
-0.96209174 -0.39295658 1.983593
-0.98811597 -0.39746445 2.0016797
-0.99862659 -0.39569065 1.9877731
-1.0143423 -0.39600107 1.9843556
-1.0278057 -0.39543596 1.976439
-1.0384665 -0.39382419 1.9631979
-1.0610552 -0.39671758 1.9724935
-1.0702041 -0.39457548 1.9564664
-1.0630078 -0.38654825 1.9110866
-1.0672814 -0.38285267 1.8873767
-1.0698168 -0.37864056 1.8611319
-1.0695732 -0.37356877 1.8306811
-1.0919492 -0.37642652 1.8393711
-1.0730373 -0.36516032 1.7785155
-1.0676565 -0.35872602 1.7415844
-1.090793 -0.36191452 1.7517595
-1.0785418 -0.35342798 1.7049364
-1.0699255 -0.34632516 1.6650171
-1.0747153 -0.34368077 1.6468129
-1.0614609 -0.33539778 1.601442
-1.0651141 -0.33258948 1.5825726
-1.0900942 -0.3364284 1.5955583
-1.0985711 -0.3351444 1.5839064
1.3630579 -0.42592651 1.9333729
1.3471141 -0.42577899 1.9395269
1.3477365 -0.43092486 1.969985
1.3047794 -0.4220939 1.9359103
1.2932258 -0.42333257 1.9481881
1.2874569 -0.42651755 1.9694813
1.2756281 -0.42774805 1.981665
1.2626467 -0.42861766 1.9921135
1.2210908 -0.41968796 1.9564642
1.2333695 -0.42926931 2.0077145
1.2247404 -0.4317261 2.0254784
1.2089218 -0.43167931 2.031358
1.1935791 -0.43180352 2.0379655
1.1708807 -0.42923447 2.0316482
1.156536 -0.42969984 2.0396891
1.139282 -0.42908221 2.0424647
1.1244028 -0.42935425 2.0494182
1.1015916 -0.42656252 2.0415211
1.0812428 -0.42465818 2.0377586
1.0582919 -0.42166191 2.0285716
1.0440041 -0.42208004 2.0358202
1.0173507 -0.41743684 2.0183375
1.0092207 -0.42036858 2.0376563
0.9901824 -0.41877699 2.0348172
0.97503155 -0.41880551 2.0398092
0.95031136 -0.41465938 2.0241857
0.9348622 -0.41449019 2.0279932
0.92545438 -0.41703784 2.0451396
0.89602524 -0.41049793 2.017261
0.88343012 -0.41157937 2.0269818
0.86536998 -0.41010818 2.0239515
0.85646653 -0.41300082 2.0425563
0.84103531 -0.41279274 2.0456574
0.81793851 -0.40874642 2.0294726
0.79511142 -0.40468767 2.013068
0.78171945 -0.40536872 2.0203099
0.77103752 -0.40750816 2.0348248
0.75510037 -0.40689954 2.03545
0.73819548 -0.40573475 2.0331781
0.72593796 -0.40712878 2.0437505
0.70876622 -0.40576756 2.0403109
0.69639003 -0.40715218 2.0507054
0.67990923 -0.40614501 2.0488894
0.65656608 -0.40090302 2.025423
0.64683867 -0.40392554 2.0439348
0.62767106 -0.40105656 2.0323362
0.61235785 -0.40057257 2.032815
0.60119587 -0.40284654 2.0473347
0.58422613 -0.40124533 2.0419426
0.56290895 -0.39649993 2.0203118
0.54473054 -0.39377421 2.0089271
0.52698731 -0.39122444 1.9983407
0.52031887 -0.39698297 2.0304682
0.50946248 -0.39978349 2.0473325
0.49152774 -0.39703092 2.0354738
0.47756425 -0.39741659 2.0397403
0.46442965 -0.39853773 2.0477471
0.44681558 -0.39576322 2.0355079
0.43384993 -0.39705852 2.0442803
0.41647565 -0.39426932 2.0317874
0.40554062 -0.39759445 2.0509751
0.38778824 -0.39423466 2.0353501
0.36956838 -0.39012358 2.0157142
0.3590847 -0.39417669 2.0385149
0.33968997 -0.38837835 2.0099082
0.32585078 -0.38870451 2.013149
0.31332558 -0.39069867 2.0250371
0.29766116 -0.38878185 2.0164332
0.28552356 -0.3915101 2.0320404
0.27150798 -0.39181429 2.0349147
0.25685519 -0.39118177 2.0328195
0.23981865 -0.38663203 2.0101318
0.22887324 -0.39194718 2.0390613
0.21131554 -0.38589275 2.0083277
0.19991058 -0.39101201 2.0361238
0.18335101 -0.38606125 2.0110204
0.16976459 -0.3870689 2.0171194
0.15707786 -0.39049521 2.0358622
0.14181986 -0.38757524 2.021204
0.12800142 -0.38837919 2.026046
0.11417756 -0.38936391 2.0317757
0.099321939 -0.38661104 2.0177875
0.085200004 -0.38627747 2.016454
0.07130748 -0.3870576 2.0209148
0.057108961 -0.38615203 2.0164433
0.043100495 -0.38636026 2.0177674
0.029062403 -0.3863757 2.0180132
0.014979414 -0.38526523 2.0122693
0.00098185649 -0.38601533 2.0162535
-0.013006929 -0.38489276 2.0103178
-0.026992256 -0.38488418 2.0101814
-0.0409167 -0.38430959 2.0070026
-0.05498511 -0.38503554 2.0106041
-0.068837732 -0.38426238 2.0062542
-0.083075203 -0.38553607 2.0126078
-0.097826563 -0.3884829 2.0276947
-0.11123108 -0.38601243 2.0142262
-0.12421219 -0.38279048 1.9967495
-0.13709192 -0.37993649 1.9811527
-0.15257679 -0.38416398 2.0027027
-0.16521339 -0.38111246 1.985948
-0.17972806 -0.38253021 1.992602
-0.19547459 -0.38617802 2.0108871
-0.20774181 -0.38292387 1.9928921
-0.22235808 -0.38413641 1.9982632
-0.23533987 -0.38254884 1.9888922
-0.25172102 -0.38635594 2.007714
-0.26504433 -0.38531533 2.0010779
-0.27801877 -0.38389739 1.9924089
-0.2906034 -0.38210246 1.9817137
-0.30735156 -0.38569602 1.9991096
-0.32342467 -0.38816595 2.0105486
-0.33611566 -0.38653997 2.0005398
-0.35120863 -0.38769597 2.0049746
-0.36725423 -0.38977379 2.0141325
-0.37472486 -0.38293451 1.9768127
-0.39224356 -0.38648552 1.9934958
-0.40962136 -0.38965702 2.0081065
-0.42500269 -0.3907809 2.0119944
-0.43296102 -0.38522744 1.9811937
-0.46049953 -0.39689779 2.0395601
-0.47468957 -0.39670378 2.0363662
-0.47448719 -0.38484776 1.9728539
-0.49502584 -0.39001173 1.9972404
-0.50941002 -0.3901743 1.9957157
-0.52726883 -0.39291728 2.0074031
-0.5404802 -0.39214376 2.0009036
-0.55702221 -0.39376441 2.0066366
-0.57153058 -0.3939023 2.0046718
-0.57809132 -0.38868973 1.9752309
-0.60476059 -0.39692363 2.0145607
-0.60616076 -0.38857543 1.969014
-0.63104117 -0.39531645 2.0004654
-0.65398717 -0.40057257 2.0241795
-0.66962892 -0.4012233 2.0243237
-0.6812371 -0.39948097 2.0122359
-0.66491497 -0.38177466 1.9192052
-0.71350902 -0.40130323 2.0147679
-0.72357655 -0.39881483 1.9987282
-0.7426067 -0.40126708 2.0075643
-0.75040674 -0.39767361 1.985855
-0.76075774 -0.39554223 1.9714795
-0.78705537 -0.40162733 1.9982635
-0.80939358 -0.40550715 2.0138192
-0.82013041 -0.4035399 2.0000181
-0.83071887 -0.40156999 1.9861652
-0.84575742 -0.40178218 1.9831282
-0.87404114 -0.40817255 2.0106759
-0.88771325 -0.40763998 2.0037196
-0.89651114 -0.40492344 1.9859005
-0.90470076 -0.40202424 1.9671612
-0.92552656 -0.40474313 1.9760497
-0.92212504 -0.39694792 1.9331846
-0.9412272 -0.39893067 1.9383068
-0.98036909 -0.40921819 1.9838781
-0.98989278 -0.40701997 1.9682742
-1.0148369 -0.41113365 1.9833286
-1.0116049 -0.40387875 1.9430734
-1.0270808 -0.40419364 1.9395314
-1.0485876 -0.40683946 1.9471465
-1.0627412 -0.40659857 1.9407258
-1.0839956 -0.40904364 1.9471184
-1.0591563 -0.39426458 1.8709574
-1.0718349 -0.39365932 1.862739
-1.0790249 -0.39108074 1.8450724
-1.0680401 -0.38206762 1.7968799
-1.0807015 -0.38163608 1.7894496
-1.0784848 -0.37602809 1.757551
-1.0748435 -0.37006995 1.7240952
-1.0728827 -0.36483043 1.6941094
-1.0885414 -0.36563718 1.6924497
-1.0689392 -0.3547233 1.6361268
-1.0604959 -0.3477284 1.5982534
-1.0794365 -0.34977147 1.6023307
-1.0824798 -0.34667566 1.5825907
-1.0975703 -0.34746498 1.5807301
1.3591015 -0.44012228 1.9255368
1.3493412 -0.44198012 1.9405704
1.3294914 -0.44053781 1.9409269
1.3129858 -0.44018281 1.9460045
1.2883599 -0.43706465 1.938638
1.2826412 -0.44036263 1.9598792
1.2761602 -0.44347614 1.9803063
1.2579367 -0.44253552 1.9824393
1.2350887 -0.43992412 1.9768971
1.214944 -0.43822181 1.975329
1.2060196 -0.44057482 1.9921106
1.1994244 -0.44385079 2.0130925
1.1708515 -0.43897304 1.9967061
1.1674738 -0.44353735 2.0235114
1.1531715 -0.44401851 2.0315304
1.1416767 -0.44560853 2.0446041
1.1168921 -0.44198364 2.0334601
1.0974309 -0.440393 2.0315967
1.0702668 -0.43562162 2.014787
1.0641922 -0.43942031 2.037822
1.0373377 -0.43462417 2.0206029
1.0213375 -0.4343006 2.0241923
1.0127156 -0.43715224 2.0426402
0.99191952 -0.4347555 2.0363028
0.97295171 -0.43309787 2.0333247
0.96528852 -0.43649957 2.0542164
0.94675267 -0.43501505 2.0518799
0.9246769 -0.43182874 2.0413237
0.90319556 -0.42881864 2.0314603
0.88814479 -0.4288114 2.0358181
0.87001026 -0.42728934 2.0328341
0.85649657 -0.4280231 2.0405753
0.83772296 -0.42610765 2.0354993
0.81833583 -0.42380491 2.0284398
0.80769944 -0.42603263 2.0431485
0.78915143 -0.42409262 2.0376432
0.7717607 -0.422712 2.0347371
0.7602244 -0.42454666 2.0473506
0.74222416 -0.42277274 2.0423539
0.72302669 -0.42023069 2.033504
0.70367116 -0.41748905 2.0235605
0.69830066 -0.42310461 2.0543785
0.67071515 -0.41521147 2.0190198
0.65509164 -0.4145377 2.0188916
0.64333272 -0.41633418 2.0308197
0.62798733 -0.41583923 2.03142
0.61407399 -0.41629162 2.0366085
0.59709746 -0.41463888 2.0313375
0.5847882 -0.41622552 2.0419819
0.57236201 -0.41780815 2.0525539
0.55037439 -0.4123109 2.0279853
0.53945106 -0.41502944 2.0440428
0.52784908 -0.41736218 2.0581439
0.50759971 -0.41279563 2.0378821
0.4828499 -0.40419367 1.9974002
0.47869691 -0.41283444 2.042712
0.46509641 -0.4136124 2.048806
0.44599923 -0.40939483 2.0298798
0.43305871 -0.41073605 2.0386393
0.4208025 -0.41284096 2.0511644
0.40650305 -0.41301981 2.0539892
0.38890046 -0.40973184 2.0393598
0.37310296 -0.40816632 2.0332773
0.35977691 -0.40928751 2.0406094
0.34116915 -0.40424362 2.0168874
0.32664561 -0.40381151 2.0162616
0.31423447 -0.40607002 2.0291116
0.29909906 -0.40485552 2.0244122
0.28580743 -0.40613991 2.0322361
0.27255112 -0.40761185 2.0409474
0.25711086 -0.40579972 2.0330231
0.24260162 -0.40533087 2.031806
0.22725183 -0.40331185 2.0226865
0.21336572 -0.40379494 2.0261407
0.20106198 -0.40755421 2.046103
0.18663414 -0.40725368 2.0454721
0.17075336 -0.40347022 2.0271418
0.15618467 -0.40238363 2.0223887
0.14291778 -0.40476811 2.0351517
0.13015792 -0.40927279 2.0586007
0.11379962 -0.40217665 2.0231936
0.099997297 -0.40338376 2.0298021
0.08524508 -0.40052548 2.015732
0.071791813 -0.40384665 2.0329347
0.057304718 -0.40155548 2.0216074
0.043123268 -0.40061104 2.0170457
0.028783053 -0.39656672 1.9966902
0.014972861 -0.39909002 2.0095935
0.00097905402 -0.39890027 2.0086668
-0.01302646 -0.39947766 2.0115693
-0.02695428 -0.3983086 2.0055461
-0.040998127 -0.39906693 2.0092387
-0.055334046 -0.40155891 2.021661
-0.068473473 -0.39611822 1.9937798
-0.082797766 -0.39821103 2.0040486
-0.097220257 -0.40010408 2.0132365
-0.11123628 -0.40005773 2.0125251
-0.12554966 -0.40097147 2.0166147
-0.13938668 -0.40033311 2.0127738
-0.15317665 -0.39968872 2.0088398
-0.16732293 -0.40000412 2.0097027
-0.18122581 -0.3997339 2.0075359
-0.19454102 -0.39829928 1.999415
-0.20744962 -0.39628008 1.9882804
-0.2229085 -0.39908031 2.001447
-0.23535255 -0.39647099 1.9872094
-0.25088471 -0.39906475 1.9991881
-0.2673617 -0.40280795 2.0168855
-0.27641717 -0.39555529 1.9790505
-0.29514524 -0.40217584 2.0111027
-0.30944145 -0.40242904 2.0109806
-0.32235691 -0.4009428 2.002038
-0.33790997 -0.40272424 2.009469
-0.35274059 -0.40353626 2.0119486
-0.36779696 -0.40453404 2.0152862
-0.38037512 -0.40283313 2.005012
-0.38962969 -0.39786029 1.9782888
-0.40886271 -0.40306821 2.0025127
-0.4264347 -0.40634534 2.0169613
-0.43902272 -0.40481499 2.0072877
-0.44913578 -0.40116975 1.9870039
-0.46408302 -0.40193275 1.988669
-0.47953206 -0.4030726 1.9921335
-0.49294093 -0.40248135 1.9869033
-0.5104025 -0.40513992 1.9977585
-0.52407467 -0.40472806 1.9932727
-0.53821963 -0.40469342 1.9905907
-0.55339813 -0.40541768 1.9915947
-0.56835067 -0.40594438 1.991541
-0.58059108 -0.40455544 1.9819505
-0.59553343 -0.40507054 1.9816945
-0.61394656 -0.40786755 1.9925927
-0.63430268 -0.41179854 2.0089524
-0.65821755 -0.41781351 2.0354092
-0.66506249 -0.41296715 2.0084703
-0.6721946 -0.4085018 1.9833957
-0.69147038 -0.41144866 1.9945263
-0.70767772 -0.41248649 1.996224
-0.72095478 -0.41180912 1.9894785
-0.73688495 -0.41264397 1.9900182
-0.71318197 -0.39168009 1.8847175
-0.77028698 -0.41504967 1.9943899
-0.79889899 -0.42248467 2.0265491
-0.80396682 -0.41742456 1.9982182
-0.8142404 -0.41519997 1.9835559
-0.83791691 -0.41976792 2.0014956
-0.82549506 -0.40640631 1.933296
-0.85694498 -0.41473049 1.9690506
-0.87113351 -0.41456243 1.9640108
-0.89253157 -0.41777441 1.9750001
-0.90719122 -0.41777959 1.9705992
-0.91520864 -0.41477436 1.9518409
-0.93520814 -0.4172084 1.9588082
-0.96730107 -0.42487949 1.9903656
-0.98776364 -0.42728677 1.9968804
-0.99871093 -0.42556751 1.9838732
-1.0064138 -0.42253673 1.9646794
-1.0202197 -0.42211902 1.9576912
-1.0234635 -0.41740561 1.9306061
-1.0426018 -0.41921613 1.9338921
-1.0538601 -0.41785187 1.9223316
-1.0521752 -0.41146347 1.8874912
-1.0842427 -0.41826859 1.9135826
-1.0699359 -0.40724102 1.85741
-1.0869725 -0.40827671 1.8567673
-1.0950679 -0.40597075 1.840742
-1.07268 -0.39256808 1.7741185
-1.080598 -0.39045551 1.7590994
-1.0862935 -0.38760275 1.7407125
-1.0787153 -0.38014284 1.7015257
-1.0717018 -0.37306157 1.664186
-1.0668932 -0.36690935 1.6311516
-1.0519514 -0.35746038 1.5834838
-1.0636979 -0.35719606 1.5769758
-1.0814762 -0.35893977 1.5793324
-1.1060305 -0.36286652 1.5912365
1.3523089 -0.45327753 1.9135898
1.3481973 -0.45708951 1.9366474
1.3256021 -0.45465049 1.9329512
1.3074998 -0.45371327 1.935562
1.3116037 -0.46055117 1.9716113
1.2756693 -0.45332563 1.9468993
1.2623813 -0.45406961 1.9565125
1.2485003 -0.4546161 1.965205
1.2428446 -0.45820868 1.9871441
1.232851 -0.46027264 2.0023983
1.2141078 -0.45908102 2.0033092
1.1924168 -0.45672944 1.9989897
1.1822129 -0.45877379 2.0139716
1.1596596 -0.45601636 2.007621
1.1488286 -0.4578563 2.0215707
1.1316739 -0.45719185 2.0243104
1.0966791 -0.44920173 1.9941775
1.0890813 -0.45236638 2.0138059
1.076687 -0.45360062 2.0247455
1.0605824 -0.45328495 2.0286417
1.0360111 -0.44928813 2.015806
1.0064003 -0.44295412 1.9922034
0.99408299 -0.44415516 2.0026124
0.97526383 -0.44244328 1.9997002
0.97128052 -0.44751361 2.0276327
0.96737397 -0.45278066 2.0564923
0.9426769 -0.4483296 2.0408094
0.91623783 -0.44289076 2.0204122
0.8960793 -0.44035721 2.0132077
0.87763071 -0.43859243 2.0094216
0.85813153 -0.43623286 2.0027692
0.85122937 -0.44030645 2.0258162
0.83662826 -0.44047201 2.0307069
0.81872106 -0.43887132 2.0273004
0.79875475 -0.43608728 2.0182672
0.78459275 -0.43642685 2.0237005
0.76486486 -0.43362415 2.0143528
0.75413322 -0.43591172 2.0287499
0.73491699 -0.43328837 2.0200379
0.72565931 -0.43654901 2.0388949
0.70273197 -0.4315508 2.0187969
0.68984723 -0.43263841 2.0272784
0.67042941 -0.42958704 2.0161273
0.65661687 -0.43007162 2.0216031
0.65100396 -0.43607071 2.0531695
0.63174772 -0.43299723 2.0416448
0.61774892 -0.43346676 2.0468581
0.59876442 -0.43037558 2.0350387
0.58078086 -0.42786747 2.0258861
0.5577209 -0.42139539 1.9976908
0.53993011 -0.41866916 1.9872602
0.53200817 -0.42365471 2.0136602
0.52326381 -0.42824355 2.0381451
0.50761473 -0.42728221 2.035964
0.47989365 -0.41580448 1.9831538
0.47137654 -0.4207752 2.0092959
0.45971829 -0.42316443 2.0229855
0.44684914 -0.42455703 2.0318229
0.43509495 -0.42713675 2.0463338
0.41689897 -0.42335248 2.0300508
0.40159738 -0.42234248 2.0270796
0.38307425 -0.41774476 2.006664
0.37416855 -0.42368448 2.0371912
0.35741991 -0.42086297 2.0252178
0.34410346 -0.42201635 2.0324419
0.32603365 -0.41718736 2.0105548
0.31305185 -0.41872635 2.0195122
0.29825452 -0.41786775 2.0167532
0.28391758 -0.41760066 2.0167999
0.26856354 -0.41573122 2.0089757
0.25760674 -0.42083845 2.0350668
0.24064647 -0.41616189 2.0134232
0.22530246 -0.41387233 2.0033317
0.21388178 -0.41896415 2.0291851
0.19649728 -0.41226721 1.9974388
0.18548886 -0.41894653 2.030935
0.1709217 -0.41802886 2.0272703
0.15768829 -0.42050213 2.0401118
0.14339894 -0.42037106 2.0401616
0.12794939 -0.41643503 2.021534
0.1139123 -0.41669038 2.0233371
0.099425361 -0.41513956 2.0162373
0.083767295 -0.40738234 1.9786892
0.071278483 -0.41501793 2.0164232
0.056754842 -0.41164699 2.0002112
0.042770937 -0.41126981 1.998592
0.02885421 -0.41148627 1.9998158
0.014966093 -0.41289669 2.0068238
0.00098098326 -0.41370055 2.0107973
-0.013014269 -0.41309762 2.0078166
-0.026968256 -0.41248831 2.004741
-0.04056266 -0.40867206 1.9858974
-0.054563433 -0.40985039 1.99145
-0.069210805 -0.41442242 2.0135527
-0.083282657 -0.41458741 2.0140114
-0.09675388 -0.4121463 2.001651
-0.11193811 -0.41669768 2.0234451
-0.1240416 -0.41004559 1.9903609
-0.13932392 -0.41418341 2.009995
-0.15318173 -0.41371673 2.0070426
-0.16490576 -0.40804836 1.9786077
-0.1800943 -0.41116646 1.99305
-0.19473653 -0.4126792 1.9995764
-0.20887166 -0.41298664 2.0001493
-0.22345516 -0.41408631 2.0045202
-0.23902501 -0.41677597 2.0165718
-0.24931817 -0.41047806 1.984749
-0.2631487 -0.41036183 1.9830004
-0.27885231 -0.41303155 1.9947459
-0.29162139 -0.41130728 1.9850379
-0.30264112 -0.40738553 1.9645952
-0.32004726 -0.41202763 1.9857062
-0.33630729 -0.41486791 1.9979728
-0.34468216 -0.4081434 1.9637698
-0.36308947 -0.41335905 1.9874052
-0.37548897 -0.41160169 1.9771746
-0.3888939 -0.41103286 1.9726399
-0.40264446 -0.41085595 1.969937
-0.42322615 -0.41742849 1.9997512
-0.43883064 -0.41882569 2.0044749
-0.44829547 -0.41445908 1.981347
-0.45148695 -0.40473405 1.9324065
-0.47886747 -0.41662738 1.9874252
-0.48756734 -0.41205224 1.9631681
-0.50945783 -0.41856924 1.9920911
-0.52310479 -0.41814384 1.9876131
-0.53646159 -0.41751501 1.9820958
-0.55237699 -0.41885865 1.9859399
-0.56463045 -0.41742775 1.9764559
-0.58636689 -0.42290616 1.9998432
-0.60200733 -0.42383149 2.0014198
-0.60278141 -0.41449115 1.9541311
-0.62346923 -0.41895765 1.9724091
-0.63364631 -0.41631955 1.9568927
-0.65620124 -0.4217518 1.9795158
-0.6550172 -0.41202012 1.9303719
-0.6946885 -0.42785728 2.0018561
-0.70542341 -0.42558956 1.9877993
-0.72596294 -0.42920935 2.001368
-0.72777224 -0.42183059 1.9632121
-0.75323248 -0.42818063 1.9893841
-0.77136695 -0.43020499 1.9951552
-0.77424419 -0.42380282 1.9615071
-0.80472016 -0.43246561 1.9980348
-0.81574935 -0.4305546 1.985196
-0.84057748 -0.43586585 2.0058062
-0.84161305 -0.42886963 1.9692818
-0.85580701 -0.42870218 1.9643499
-0.87986338 -0.4333984 1.9817557
-0.90260136 -0.43730164 1.9953431
-0.90681106 -0.43224707 1.9676749
-0.93677443 -0.4394339 1.9960662
-0.92556918 -0.42738613 1.9363858
-0.93704009 -0.4260191 1.9255462
-0.97134101 -0.43491557 1.9613069
-0.99258769 -0.43778852 1.9694812
-0.99709326 -0.43330175 1.9442264
-1.0062605 -0.43094161 1.928588
-1.0212052 -0.43108788 1.9242029
-1.0333631 -0.43007013 1.9145123
-1.035117 -0.42481092 1.8857851
-1.0598112 -0.42898157 1.8991952
-1.0611664 -0.42372015 1.8704449
-1.073382 -0.42287779 1.8613615
-1.0830605 -0.42107129 1.8479559
-1.090611 -0.41849518 1.831125
-1.1055583 -0.41878706 1.8269025
-1.1133502 -0.41639546 1.8108275
-1.0884148 -0.40197676 1.742156
-1.0793 -0.3936851 1.7005103
-1.0770565 -0.3880716 1.6706586
-1.0819299 -0.38512683 1.652452
-1.0758015 -0.37838268 1.6178609
-1.0730637 -0.37297586 1.5891495
-1.0958997 -0.37648031 1.598736
-1.11168 -0.37750822 1.5975726
1.364658 -0.47291195 1.9288601
1.3208178 -0.4629764 1.894709
1.3448828 -0.47688884 1.9589261
1.3091007 -0.46965736 1.9356235
1.291016 -0.46867853 1.9381
1.2676145 -0.4657228 1.9322025
1.296211 -0.48203191 2.0069704
1.2458552 -0.46902063 1.9586885
1.2340177 -0.47036615 1.9705962
1.201104 -0.46361062 1.9481474
1.1867747 -0.46394724 1.9555714
1.1779009 -0.46645302 1.9721663
1.1614491 -0.46598423 1.9760313
1.14159 -0.46411783 1.9738126
1.1377258 -0.46879157 1.9995779
1.1230906 -0.46909434 2.0065341
1.1013703 -0.46640512 2.0004833
1.090463 -0.46828374 2.0140834
1.0400553 -0.45301104 1.9531146
1.0479263 -0.46304771 2.0019839
1.036007 -0.46450615 2.0135279
1.0231035 -0.46556005 2.0232511
1.0027523 -0.46320564 2.0179532
0.99406445 -0.46624935 2.0362768
0.96707022 -0.46066773 2.0165372
0.95990258 -0.46450335 2.0382357
0.9246977 -0.45467651 1.9993883
0.90578085 -0.45266792 1.9949864
0.9143095 -0.46453676 2.0522335
0.88426775 -0.45687911 2.0225296
0.8558408 -0.44980642 1.9952146
0.84972745 -0.45441881 2.0200288
0.85184699 -0.46367699 2.0656998
0.83185822 -0.46101889 2.0578666
0.80414045 -0.45389983 2.0298064
0.80396229 -0.46235022 2.071831
0.77248043 -0.45277703 2.0324018
0.75482124 -0.45108956 2.028466
0.73359668 -0.44716135 2.0142546
0.70738727 -0.4399727 1.9850792
0.70722365 -0.44902152 2.0296707
0.69142556 -0.44831753 2.0298307
0.67044139 -0.44414738 2.0140655
0.65512484 -0.4436301 2.0148821
0.6433621 -0.4455505 2.0267899
0.62082398 -0.43992442 2.0040078
0.60960215 -0.44224045 2.0175862
0.59520274 -0.44230795 2.0207698
0.58481282 -0.44543269 2.0379741
0.56427407 -0.44078943 2.0192864
0.55422711 -0.44431332 2.038218
0.53773415 -0.44272035 2.033438
0.52133602 -0.44111931 2.0285294
0.50691628 -0.44114867 2.0310946
0.48745531 -0.43666378 2.0126219
0.47494075 -0.4383184 2.0225775
0.45282951 -0.43094343 1.99045
0.44226021 -0.43443131 2.0087948
0.43327984 -0.4397639 2.035707
0.41768819 -0.43852228 2.0319059
0.401793 -0.43686217 2.0260677
0.38654667 -0.43581095 2.022994
0.37136301 -0.43475255 2.019809
0.35184896 -0.42833781 1.9914514
0.34199843 -0.43364313 2.0179322
0.32635126 -0.4317399 2.0105574
0.31767425 -0.43930298 2.0475554
0.29683757 -0.42997062 2.0051401
0.28419358 -0.43216676 2.0168092
0.26792467 -0.42879182 2.0022113
0.25382531 -0.42870769 2.003021
0.24030469 -0.42964843 2.0085926
0.22465517 -0.4266631 1.9955977
