# .PCD v0.7 - Point Cloud Data file format
VERSION 0.7
FIELDS x y z
SIZE 4 4 4
TYPE F F F
COUNT 1 1 1
WIDTH 1448
HEIGHT 1
VIEWPOINT 0 0 0 1 0 0 0
POINTS 1448
DATA ascii
1.0340991 -0.15981667 2.0406513
1.0221128 -0.16031943 2.0521896
1.0043552 -0.15991849 2.0519929
0.99267042 -0.16048701 2.0642514
0.97112864 -0.15945482 2.0556705
0.96311104 -0.16064571 2.0758853
0.93636888 -0.15870143 2.0551825
0.91158187 -0.15703027 2.0378568
0.8990382 -0.15744762 2.0477231
0.88366121 -0.15737453 2.0510912
0.86674148 -0.15701941 2.0506642
0.84455991 -0.15568192 2.0371857
0.82783413 -0.15532038 2.0364504
0.81850046 -0.15635777 2.0541337
0.79743093 -0.15515019 2.0420201
0.78471494 -0.15555301 2.051163
0.7653082 -0.15461957 2.0424623
0.74708557 -0.15389344 2.0364044
0.74070579 -0.15562658 2.0630803
0.71987665 -0.15433259 2.0492604
0.7082898 -0.15500742 2.0616887
0.68615884 -0.15335435 2.0428259
0.67730004 -0.15466018 2.0635922
0.65699959 -0.15335332 2.0491624
0.64285076 -0.15345562 2.0536041
0.62751657 -0.15327311 2.0541303
0.61135876 -0.15287597 2.0516729
0.59720069 -0.15297174 2.0558007
0.58328652 -0.15313631 2.0607915
0.56749123 -0.15280282 2.0589533
0.55021042 -0.1520413 2.0512125
0.53781426 -0.15262489 2.0616806
0.52213752 -0.15228401 2.0594993
0.50628024 -0.1518696 2.0562322
0.49026316 -0.15138146 2.0518751
0.47678918 -0.15167286 2.058089
0.45891654 -0.15053947 2.0447433
0.44860721 -0.151894 2.065378
0.42643538 -0.14918853 2.0303078
0.41421476 -0.14989811 2.0419703
0.39557901 -0.14825401 2.0212486
0.38660425 -0.15024292 2.0503719
0.37070915 -0.14959183 2.0431449
0.35408083 -0.14858115 2.0308831
0.34172142 -0.14935225 2.0430908
0.32639268 -0.14883615 2.0374937
0.31130639 -0.14838885 2.0327694
0.29730192 -0.14843926 2.0348454
0.28355643 -0.14863046 2.0388021
0.26847434 -0.14810431 2.0327768
0.25434786 -0.14807631 2.0335705
0.24080355 -0.14840378 2.0392208
0.22784969 -0.14915858 2.0507298
0.21269849 -0.14847961 2.0423148
0.19834322 -0.14829923 2.0407393
0.18366329 -0.14782996 2.0350904
0.16980943 -0.14800288 2.0382833
0.15569413 -0.14795862 2.0383997
0.14076179 -0.147052 2.0264778
0.12754443 -0.14793463 2.0393372
0.11327782 -0.14766821 2.0361757
0.09934932 -0.14782952 2.0388932
0.084892362 -0.14712811 2.0295575
0.07074035 -0.14678273 2.0251048
0.056819525 -0.1468652 2.0265367
0.042903267 -0.14701708 2.0288713
0.028943567 -0.14709486 2.0301137
0.014582211 -0.14336911 1.9783989
0.00086711743 -0.13031718 1.7969204
-0.0097514214 -0.11030625 1.5186082
-0.020078454 -0.10944309 1.5065379
-0.030460626 -0.1093671 1.5053681
-0.040908068 -0.10950449 1.5071189
-0.051313601 -0.10949671 1.5068045
-0.06167623 -0.10941546 1.5054222
-0.072022274 -0.10933247 1.5039696
-0.082297206 -0.10917608 1.5014509
-0.092723496 -0.10923301 1.5018497
-0.10309128 -0.1092165 1.5011815
-0.11330527 -0.10905498 1.4984536
-0.12405533 -0.10939328 1.5026159
-0.13451529 -0.10944318 1.5027275
-0.1447928 -0.10934814 1.5007817
-0.15830122 -0.11154242 1.5305183
-0.21373373 -0.1411474 1.939895
-0.23469196 -0.14583336 2.0037823
-0.2533628 -0.14865452 2.0417323
-0.26741543 -0.14861117 2.0399561
-0.27806935 -0.14677815 2.0133786
-0.29221189 -0.14687379 2.0134089
-0.3065168 -0.14703855 2.014327
-0.32193759 -0.14770094 2.0220408
-0.3392646 -0.14914595 2.0404642
-0.35432145 -0.14951707 2.0439992
-0.36346409 -0.14746012 2.0140429
-0.3762303 -0.14697148 2.0056322
-0.3960903 -0.1491897 2.0343573
-0.41107029 -0.14948006 2.0364969
-0.42528814 -0.14948311 2.0346212
-0.44012785 -0.1496975 2.0355723
-0.45456931 -0.14976722 2.0344689
-0.46946213 -0.14997691 2.035208
-0.48438716 -0.15018424 2.0358396
-0.4981643 -0.15003398 2.0315163
-0.50972372 -0.14924274 2.0183928
-0.527605 -0.15029523 2.0303197
-0.54516292 -0.15120253 2.0401676
-0.56393081 -0.1523902 2.0537205
-0.57565153 -0.15166174 2.0411763
-0.58833063 -0.15121515 2.032403
-0.60402042 -0.15154527 2.0340774
-0.61803156 -0.15144862 2.0299032
-0.63644189 -0.1524099 2.0399256
-0.63541818 -0.14877802 1.9879867
-0.60722154 -0.13908052 1.8545679
-0.65209901 -0.14617686 1.9469271
-0.6973083 -0.15304987 2.0359216
-0.70184797 -0.15089798 2.0037801
-0.72268134 -0.15226528 2.0186708
-0.73864865 -0.15257376 2.0193038
-0.75084722 -0.15210688 2.0095241
-0.77319318 -0.15367447 2.0267255
-0.78826207 -0.15376443 2.0241742
-0.80150634 -0.15350161 2.0168707
-0.81804264 -0.15386744 2.0178094
-0.8259238 -0.15262103 1.9973885
-0.84781331 -0.15396157 2.011004
-0.86601949 -0.15459906 2.0152352
-0.87955672 -0.1543957 2.0083308
-0.90556598 -0.15635239 2.0296109
-0.92535067 -0.15718853 2.0360761
-0.93694359 -0.15662868 2.0242333
-0.94588661 -0.1556503 2.0069044
-0.97007978 -0.15717289 2.0219722
-0.98669899 -0.15744078 2.0206409
-1.0037923 -0.15777516 2.0200689
-1.0048238 -0.1556123 1.9872557
-1.0213296 -0.15587385 1.9856228
-1.0424623 -0.15682399 1.9927088
-1.0418569 -0.15452319 1.9581312
-1.0488504 -0.15339777 1.9385985
-1.0604081 -0.15296161 1.9278188
-1.0646133 -0.15149099 1.9038835
-1.0832416 -0.1520846 1.9060522
-1.0687283 -0.14807083 1.8500541
-1.0730726 -0.14674014 1.8279736
-1.0797067 -0.14575273 1.8102138
-1.083582 -0.14442264 1.7881722
-1.0674599 -0.14049387 1.7338017
-1.0963678 -0.14251558 1.7535158
-1.0798986 -0.13866141 1.7002969
-1.0525409 -0.13351895 1.6314185
-1.0595866 -0.13281125 1.6174008
-1.0747249 -0.13312261 1.6158597
-1.0932231 -0.13383806 1.6191615
-1.1118209 -0.1345491 1.6222832
1.4243997 -0.18631861 2.0465262
1.4117367 -0.18678308 2.058815
1.3734272 -0.18382569 2.0329247
1.3630295 -0.18457852 2.0482087
1.3399808 -0.18361573 2.0442197
1.3262032 -0.18391545 2.0542827
1.3022426 -0.18279313 2.0482278
1.285803 -0.18271181 2.0537968
1.2563421 -0.18075505 2.0379701
1.2266529 -0.17871551 2.0209792
1.2074368 -0.17816918 2.020829
1.2038691 -0.17994769 2.0472062
1.1751641 -0.17796618 2.0303941
1.1536249 -0.17703153 2.0254357
1.1448179 -0.17805183 2.0429327
1.1262562 -0.17756218 2.0429072
1.103029 -0.17631319 2.0339403
1.0869832 -0.17619312 2.0379686
1.0815296 -0.177811 2.0622137
1.0585344 -0.17655006 2.0527477
1.0424497 -0.17642161 2.0564229
1.0268123 -0.17636612 2.0608661
1.0055026 -0.17531992 2.0535309
0.98563761 -0.17449735 2.0486991
0.9697035 -0.17435586 2.0518146
0.9375065 -0.17123947 2.0194876
0.93745226 -0.17398821 2.056766
0.91224563 -0.17208232 2.0385501
0.89929265 -0.17246294 2.0475051
0.88469595 -0.1725359 2.0527105
0.87007493 -0.17260651 2.0578108
0.84252644 -0.17007011 2.0314574
0.83404493 -0.17136072 2.0510535
0.81506705 -0.17050245 2.0446675
0.80126679 -0.17071559 2.0511324
0.78281754 -0.16992757 2.0453868
0.76796532 -0.16990511 2.0488293
0.75515395 -0.17034209 2.0577848
0.74025029 -0.17031519 2.0610256
0.72402787 -0.16997756 2.0603929
0.70431137 -0.16878854 2.0492551
0.69235492 -0.1694482 2.0606437
0.67966032 -0.16995193 2.0700684
0.66173047 -0.16913985 2.0632651
0.64126509 -0.16762814 2.0477455
0.62567645 -0.16735061 2.0473087
0.61436886 -0.16823219 2.0610955
0.59682518 -0.16740747 2.0537484
0.57563645 -0.16549364 2.0328212
0.56792283 -0.16745508 2.0597835
0.55268425 -0.16724248 2.0597594
0.53647417 -0.1667165 2.0557635
0.52180636 -0.16665395 2.0574439
0.50288022 -0.16518903 2.0415881
0.48925981 -0.16543211 2.0469127
0.47469702 -0.16536161 2.0482605
0.4577544 -0.16443186 2.0388014
0.44600865 -0.16536912 2.0525973
0.43002596 -0.16474552 2.0468087
0.4157187 -0.16474299 2.048718
0.40045515 -0.16434778 2.0456343
0.38598755 -0.16426212 2.0463583
0.37135237 -0.16409583 2.0460002
0.35623032 -0.16369255 2.0425918
0.34656203 -0.16586594 2.071528
0.32555324 -0.16256492 2.0315073
0.31230143 -0.16301367 2.0386086
0.29753655 -0.16267775 2.035758
0.28268892 -0.16226086 2.0318146
0.26829794 -0.16207612 2.03073
0.25614628 -0.16329853 2.0473526
0.24134187 -0.16287394 2.0431108
0.2275912 -0.16315185 2.0476823
0.21296883 -0.1628003 2.0442283
0.19715934 -0.16142681 2.0277717
0.18336415 -0.16161855 2.0310552
0.16945085 -0.16172937 2.0332518
0.15626976 -0.16262215 2.0452948
0.14149141 -0.16186503 2.0363674
0.12715121 -0.16149744 2.0323098
0.11259807 -0.16073476 2.0231757
0.099139079 -0.1615392 2.0338538
0.084505096 -0.16037866 2.0195413
0.071038812 -0.16141361 2.0330226
0.057197824 -0.16189653 2.0394387
0.042916603 -0.16104211 2.0288174
0.028882004 -0.16073465 2.0250752
0.014958887 -0.16105281 2.0292122
0.00095380348 -0.15697099 1.977427
-0.0114486 -0.14181474 1.7849869
-0.020245917 -0.120846 1.5187144
-0.030515147 -0.11997757 1.5075768
-0.040793691 -0.1195784 1.5023503
-0.051304512 -0.11988393 1.5060219
-0.061624914 -0.11971649 1.5036441
-0.071962327 -0.11962565 1.5021924
-0.082336709 -0.11961141 1.5016662
-0.092767961 -0.11967374 1.5020641
-0.10320839 -0.11973417 1.5023905
-0.11350861 -0.11963574 1.5006566
-0.12362737 -0.11937861 1.4968661
-0.13545986 -0.12068809 1.5128689
-0.1509297 -0.12481763 1.5645065
-0.20632438 -0.1592 1.9988111
-0.2225823 -0.1609634 2.0201502
-0.23534176 -0.160138 2.0086815
-0.24966142 -0.16040707 2.0109866
-0.26402351 -0.16067353 2.0131907
-0.2793752 -0.16148525 2.0222065
-0.29244548 -0.16096373 2.0143325
-0.30959082 -0.16263041 2.033977
-0.32157055 -0.16155656 2.0190158
-0.33400989 -0.16079369 2.0079219
-0.3488493 -0.16120104 2.0114911
-0.36779687 -0.16340218 2.0375223
-0.38145867 -0.16317873 2.0330048
-0.39583319 -0.1632652 2.0323119
-0.41472217 -0.16514339 2.0540016
-0.42177171 -0.16233908 2.016958
-0.43963453 -0.16374354 2.032553
-0.45276481 -0.16335261 2.0256119
-0.46960515 -0.16428332 2.0351079
-0.48476368 -0.16458815 2.0367062
-0.49831623 -0.16434588 2.0314124
-0.51303226 -0.16449012 2.030864
-0.52876174 -0.1649427 2.0340717
-0.54353768 -0.1650818 2.0333047
-0.55465794 -0.16413194 2.0189648
-0.57582444 -0.16612813 2.0410514
-0.59318984 -0.16695687 2.0485687
-0.60392028 -0.16592321 2.0329931
-0.61908323 -0.1661271 2.0326364
-0.63840193 -0.16741151 2.045501
-0.64466077 -0.16529024 2.0163815
-0.6650309 -0.16680066 2.0318403
-0.67558092 -0.16583613 2.0168383
-0.6955893 -0.16718519 2.0301058
-0.71253937 -0.16775908 2.0337756
-0.72590256 -0.16748238 2.026974
-0.7483983 -0.16928227 2.0453873
-0.76424885 -0.16953869 2.0448906
-0.7684769 -0.16725583 2.0135021
-0.78849429 -0.16843042 2.0240011
-0.80503631 -0.16883336 2.0250442
-0.82200605 -0.16930997 2.0268793
-0.83260632 -0.16848098 2.0128953
-0.8461374 -0.16826342 2.0062191
-0.86509812 -0.16911465 2.01229
-0.88657206 -0.17042063 2.02368
-0.91067106 -0.17218 2.0403378
-0.92233205 -0.1715689 2.0285835
-0.93762678 -0.17164242 2.0249183
-0.95291966 -0.17171331 2.0211372
-0.9617781 -0.17064039 2.003737
-0.97436231 -0.17025103 1.9943842
-0.99348575 -0.17099884 1.9983648
-1.0171885 -0.17250125 2.0110865
-1.0302362 -0.17217928 2.0022602
-1.041837 -0.17162816 1.9906927
-1.0505387 -0.17062175 1.9737686
-1.0505704 -0.16825481 1.9410052
-1.0592836 -0.16732405 1.9249635
-1.0658951 -0.16609102 1.9054047
-1.0762111 -0.16546039 1.8927933
-1.0665745 -0.16181922 1.8455231
-1.0648719 -0.15946083 1.813125
-1.0729327 -0.15860622 1.7980022
-1.073648 -0.15670113 1.7708879
-1.0776809 -0.15532191 1.7498066
-1.0756972 -0.15312032 1.719431
-1.0839757 -0.15241544 1.7060432
-1.0432388 -0.14491868 1.6161684
-1.0496411 -0.1440708 1.6013826
-1.0597333 -0.14374335 1.5924134
-1.0841725 -0.14534697 1.6049298
-1.1161222 -0.14790896 1.6279069
1.4190453 -0.20173095 2.0378001
1.4047538 -0.20199279 2.0475788
1.3804022 -0.20079739 2.0423574
1.3479517 -0.19838195 2.0244238
1.3446379 -0.20024817 2.0504119
1.3265076 -0.19992623 2.0537939
1.3004177 -0.19838217 2.0443802
1.2655808 -0.19544923 2.0203137
1.2602849 -0.19706213 2.0434668
1.2429007 -0.19680172 2.0470071
1.224007 -0.19629262 2.0478315
1.1931051 -0.19381955 2.0278351
1.1794288 -0.19411655 2.0368891
1.1607835 -0.19359274 2.0371742
1.1417112 -0.1929826 2.0364256
1.1308461 -0.193762 2.0503716
1.1075627 -0.19240575 2.0414474
1.0961232 -0.1930978 2.0543165
1.0795006 -0.19288345 2.0574002
1.0569879 -0.19159527 2.0488183
1.0395801 -0.19120818 2.0498149
1.0292857 -0.19213738 2.0649593
1.011429 -0.19166169 2.0648208
0.99534678 -0.19151282 2.06813
0.96741778 -0.1890443 2.0460532
0.9531951 -0.18921833 2.0526524
0.94591808 -0.19079897 2.0745854
0.92139363 -0.18889546 2.058264
0.89833891 -0.18723491 2.0444436
0.88610959 -0.1878126 2.05514
0.87416601 -0.18847178 2.0666826
0.85148561 -0.18679863 2.0523562
0.83576399 -0.18661964 2.0544484
0.81382352 -0.18502031 2.0406692
0.80725217 -0.18692057 2.0657065
0.78728127 -0.18573129 2.0562823
0.76956743 -0.18503904 2.0522852
0.75774944 -0.18576507 2.0640585
0.73543262 -0.18389483 2.0466697
0.72225761 -0.1842809 2.0544755
0.70482939 -0.18357526 2.0499365
0.69002366 -0.18353717 2.0528181
0.67675877 -0.18391617 2.0603297
0.6600998 -0.18336914 2.0573115
0.63730347 -0.18105374 2.0341806
0.62585294 -0.18192889 2.0470693
0.60973293 -0.181456 2.0446086
0.59008694 -0.17988524 2.029578
0.58389258 -0.18243909 2.061379
0.56755638 -0.18187369 2.0576293
0.54950494 -0.18071449 2.047014
0.53637606 -0.18115531 2.0545759
0.51733065 -0.17956692 2.0388641
0.50775898 -0.18127005 2.0607376
0.49078032 -0.18035127 2.052521
0.47662047 -0.18044412 2.0558221
0.46157214 -0.18019588 2.0551364
0.44718686 -0.18019885 2.0572641
0.44032338 -0.1833338 2.095382
0.41957727 -0.18070541 2.0670803
0.40133101 -0.17900474 2.0493546
0.3860988 -0.17857246 2.0461688
0.37234306 -0.17881604 2.0507157
0.35769346 -0.17863269 2.0502625
0.34861958 -0.18133426 2.0831251
0.32596156 -0.17689803 2.0333021
0.31224242 -0.17713068 2.0374482
0.29819569 -0.17719075 2.0395305
0.28413507 -0.17724818 2.0415168
0.26941332 -0.17687751 2.0384679
0.25560623 -0.17709959 2.0422351
0.24071561 -0.17655295 2.0370038
0.22667344 -0.17659931 2.0385981
0.21282564 -0.1768133 2.0420787
0.1977918 -0.17600232 2.033565
0.18466328 -0.17689241 2.0447903
0.17007568 -0.1764165 2.0400445
0.15548608 -0.17585234 2.0342021
0.14228709 -0.1769051 2.047143
0.12743565 -0.17590892 2.0361326
0.1141705 -0.17712696 2.0508816
0.099794276 -0.17672196 2.0466363
0.085150503 -0.17563166 2.034328
0.070783302 -0.17479427 2.0249035
0.056881726 -0.17497769 2.0273306
0.042929243 -0.17507303 2.0286672
0.028904647 -0.17482428 2.025924
0.014992464 -0.17542596 2.0330477
0.0009793801 -0.17517158 2.030113
-0.012853423 -0.17303725 2.0051634
-0.023214521 -0.15059356 1.7430105
-0.030708931 -0.13122033 1.5166843
-0.041026846 -0.13070124 1.510463
-0.051462594 -0.13069196 1.5101476
-0.061815053 -0.13050997 1.5077697
-0.072515011 -0.1310083 1.5132838
-0.082698986 -0.13056631 1.507779
-0.092810944 -0.13012236 1.5022068
-0.10291808 -0.12976173 1.4975618
-0.11371008 -0.13025159 1.5027859
-0.12465942 -0.13082443 1.508926
-0.14273801 -0.13821188 1.5943849
-0.19251232 -0.1730261 1.9990383
-0.20831633 -0.17468987 2.0175016
-0.22210646 -0.17456195 2.0150428
-0.23587251 -0.17443135 2.0124903
-0.25229535 -0.17617048 2.0316005
-0.26628891 -0.17611918 2.0298316
-0.27810365 -0.17470431 2.0121732
-0.2955173 -0.1767738 2.034883
-0.30968121 -0.17679925 2.0338047
-0.32524478 -0.17758673 2.0414858
-0.33654457 -0.17607762 2.0225067
-0.35351765 -0.17753869 2.0378382
-0.36790368 -0.17763798 2.0373399
-0.38248223 -0.17781939 2.0377204
-0.39670518 -0.17782842 2.0360413
-0.41072765 -0.17775004 2.0332868
-0.42554164 -0.17800803 2.0343387
-0.4362056 -0.17656945 2.0158
-0.45440802 -0.17817684 2.0322306
-0.46506807 -0.17681904 2.0145133
-0.4849036 -0.17892694 2.036504
-0.50034672 -0.17933981 2.038955
-0.51342309 -0.17890495 2.0316255
-0.52841598 -0.17914343 2.0319319
-0.53909314 -0.17794475 2.0157564
-0.55980092 -0.18003356 2.0370219
-0.57518238 -0.18034764 2.0379486
-0.59198105 -0.18107991 2.0435483
-0.60381114 -0.18029368 2.0318103
-0.61637574 -0.17975827 2.0228682
-0.63327277 -0.18048197 2.0281267
-0.64967006 -0.18103422 2.0313487
-0.66275597 -0.18065976 2.0240166
-0.68426502 -0.18254839 2.0421307
-0.69450247 -0.1814139 2.0260828
-0.71241254 -0.18228906 2.0325782
-0.73144907 -0.18341157 2.0417399
-0.74656433 -0.18352608 2.0394955
-0.75509977 -0.18204981 2.0193894
-0.77328473 -0.18291183 2.0253534
-0.78763646 -0.18285194 2.0209386
-0.80233371 -0.18287304 2.0173488
-0.81776726 -0.18305817 2.0155003
-0.83132464 -0.18282419 2.0089247
-0.85907549 -0.18566585 2.0362682
-0.86416441 -0.18359642 2.0092466
-0.89039218 -0.18601215 2.0315981
-0.90647441 -0.18626387 2.0299938
-0.92586172 -0.1871756 2.0355289
-0.93663114 -0.18634385 2.0218775
-0.95064139 -0.18617281 2.015393
-0.96546948 -0.18616471 2.0106101
-0.97506291 -0.18516281 1.9949559
-1.0047812 -0.18795544 2.0203726
-1.0040423 -0.18505234 1.9840199
-1.0327777 -0.18758702 2.0063484
-1.0448726 -0.18706995 1.9956502
-1.0480283 -0.1849896 1.9681364
-1.0470864 -0.18225382 1.9336494
-1.0514561 -0.18050496 1.9097646
-1.0657099 -0.18047726 1.9042093
-1.0676978 -0.17840081 1.876846
-1.0723379 -0.17681634 1.8547326
-1.0727141 -0.1745792 1.8257546
-1.0676687 -0.17152841 1.7882825
-1.0827055 -0.1717404 1.7851326
-1.0899609 -0.17072824 1.7691002
-1.0865421 -0.16808975 1.7361124
-1.0742226 -0.16415553 1.6897638
-1.037147 -0.15657876 1.6058866
-1.0554281 -0.15744022 1.6095371
-1.0710686 -0.15789211 1.6088494
-1.0817627 -0.15761276 1.6005667
-1.1204056 -0.16136515 1.6334336
1.4142386 -0.21710573 2.0297923
1.3971916 -0.21695219 2.0354214
1.3845783 -0.21749152 2.047529
1.3685708 -0.21750408 2.0545728
1.3427498 -0.21593881 2.0464664
1.3353974 -0.2173416 2.0666099
1.3044261 -0.21488774 2.049691
1.2711277 -0.21198525 2.0282125
1.2527624 -0.21153173 2.0301573
1.2411222 -0.21221665 2.0430336
1.2273347 -0.21254723 2.0524175
1.206949 -0.21172893 2.0505254
1.1767238 -0.20914032 2.031178
1.1625268 -0.20936936 2.0392523
1.1414963 -0.20835732 2.0350413
1.1177145 -0.20680852 2.0253942
1.1049922 -0.20729141 2.0356834
1.0945181 -0.20821558 2.0502925
1.0811386 -0.20860554 2.0595517
1.05906 -0.20730399 2.0518787
1.0362488 -0.20581871 2.0422192
1.0131853 -0.20423827 2.0314491
0.99903923 -0.20443478 2.0383711
0.98656934 -0.20498563 2.0487878
0.96977538 -0.20464118 2.0501115
0.95176423 -0.20402491 2.0485871
0.94080961 -0.20492579 2.062335
0.92364693 -0.20448181 2.0623758
0.90135556 -0.20286874 2.0504103
0.88515794 -0.20259579 2.0519691
0.87747163 -0.20429507 2.0736024
0.85777336 -0.20320821 2.0666788
0.83038259 -0.20022777 2.04019
0.80523485 -0.19768973 2.0180531
0.79088426 -0.1977576 2.0225942
0.79456329 -0.20242122 2.0745091
0.77289551 -0.20068264 2.0603013
0.75009978 -0.19857739 2.0421517
0.7366299 -0.19890623 2.049113
0.72179031 -0.19887106 2.0522244
0.70887661 -0.19937611 2.0608833
0.6895749 -0.19806777 2.0505681
0.67384821 -0.19775181 2.0505011
0.6515066 -0.19543749 2.0294397
0.64427888 -0.19765483 2.0557158
0.62891299 -0.19742054 2.0562587
0.61102748 -0.19636534 2.048094
0.59604764 -0.19621532 2.0493495
0.58377784 -0.19697218 2.0600832
0.56718153 -0.19627061 2.0553775
0.55401325 -0.1967496 2.063051
0.53102219 -0.19367194 2.0330465
0.51893109 -0.19450921 2.044349
0.50789469 -0.19580083 2.0604181
0.48907226 -0.19407853 2.0444589
0.47362098 -0.19363032 2.0419259
0.46754903 -0.19710825 2.0810721
0.44457594 -0.19345562 2.0443048
0.43006307 -0.19336388 2.0453408
0.41555747 -0.19326922 2.0462749
0.40144002 -0.19335476 2.049062
0.38528717 -0.19243005 2.0409868
0.37067744 -0.19223468 2.0406275
0.35609105 -0.19203629 2.0401647
0.34299788 -0.19266018 2.04844
0.32777345 -0.19208913 2.0438483
0.31382644 -0.19224885 2.0470209
0.30199724 -0.19378273 2.0648808
0.28257737 -0.19035602 2.0294089
0.27130136 -0.19234367 2.0520225
0.25690448 -0.19221628 2.0518486
0.24159431 -0.19135059 2.043663
0.22782865 -0.19167659 2.0482326
0.21175671 -0.18997678 2.0309196
0.1990909 -0.19130836 2.0461926
0.18355784 -0.1898777 2.0316341
0.17069757 -0.19120386 2.0467317
0.15537846 -0.18976663 2.0319617
0.14246322 -0.19127135 2.0488684
0.12815025 -0.19102438 2.0468106
0.11398188 -0.19095847 2.0466425
0.099388264 -0.19006072 2.0374262
0.085298151 -0.18998861 2.0370615
0.071217544 -0.18991344 2.0366001
0.057174869 -0.18992734 2.0370383
0.043129455 -0.1899382 2.0373807
0.029237108 -0.1909593 2.048579
0.015113273 -0.1909641 2.0487304
0.00097535993 -0.18838647 2.0209043
-0.012901435 -0.18755609 2.0119016
-0.026299918 -0.18423556 1.9759225
-0.034715012 -0.16018657 1.7158585
-0.040964741 -0.14092697 1.507545
-0.051149592 -0.14027224 1.5002635
-0.061761782 -0.14081264 1.5058489
-0.072452694 -0.14135066 1.5113597
-0.082573757 -0.14078145 1.5048642
-0.093095683 -0.1409466 1.506253
-0.10343755 -0.14083335 1.5045891
-0.1144305 -0.14154619 1.5117917
-0.13640676 -0.15458666 1.651902
-0.17746174 -0.18555932 1.9851907
-0.19379923 -0.18809509 2.0116885
-0.20796865 -0.18832789 2.0132906
-0.22401042 -0.19012052 2.0316217
-0.23755027 -0.18970342 2.0260894
-0.25285274 -0.19066191 2.0352924
-0.26597697 -0.18996342 2.0266075
-0.28346139 -0.19229285 2.0503953
-0.29687798 -0.19177204 2.0434852
-0.31170192 -0.19216637 2.0463347
-0.32393372 -0.19099794 2.0323575
-0.33842382 -0.19120304 2.0330472
-0.35378385 -0.19186345 2.0385413
-0.36677462 -0.1912376 2.0301988
-0.38532394 -0.19344887 2.0521219
-0.39322051 -0.19034515 2.0171814
-0.41064483 -0.19190864 2.0320256
-0.42505103 -0.19200429 2.0311255
-0.43674552 -0.19090843 2.0174677
-0.45496446 -0.19264385 2.0338826
-0.47187188 -0.19373538 2.0433483
-0.48572341 -0.19354491 2.0391107
-0.50048298 -0.19371681 2.0386498
-0.51501775 -0.19379455 2.0371168
-0.52856034 -0.19350486 2.0316243
-0.53924221 -0.19221073 2.0154552
-0.55706924 -0.19346453 2.0261364
-0.57453191 -0.19453216 2.03475
-0.58938742 -0.19468641 2.0336487
-0.6045385 -0.19492866 2.0333951
-0.62202299 -0.19589445 2.0406551
-0.63049531 -0.19404268 2.0182831
-0.64532411 -0.19418608 2.0167739
-0.66755414 -0.19650184 2.0378857
-0.6800456 -0.19591336 2.0285485
-0.69468927 -0.19595653 2.0257351
-0.70376474 -0.19445938 2.0068266
-0.72563416 -0.19648649 2.0244832
-0.73995715 -0.19643076 2.0204053
-0.75287539 -0.19601141 2.0124912
-0.76395804 -0.19513905 1.999838
-0.78820503 -0.19759928 2.0214939
-0.7992546 -0.19672164 2.008635
-0.8183561 -0.19782178 2.0160432
-0.83343774 -0.19792859 2.0131488
-0.85660362 -0.19991849 2.0294323
-0.87064999 -0.19974861 2.0235078
-0.8926084 -0.20136929 2.0357502
-0.90872532 -0.20164062 2.0341268
-0.92199743 -0.20128211 2.0260229
-0.93562198 -0.20101075 2.0187361
-0.9504624 -0.20100498 2.0140626
-0.96014398 -0.1999252 1.99849
-0.9853152 -0.20205459 2.0151381
-1.0028284 -0.20257337 2.0154557
-1.0168208 -0.20237619 2.0085061
-1.0330366 -0.2026208 2.005892
-1.0478919 -0.20259538 2.0004964
-1.0487623 -0.19990502 1.968572
-1.0610366 -0.19943292 1.9586637
-1.0531687 -0.19523978 1.9119664
-1.0572869 -0.19335203 1.8881112
-1.0792488 -0.19473429 1.8963836
-1.0810575 -0.19249171 1.8690157
-1.0614754 -0.18654807 1.8055682
-1.0837097 -0.18801174 1.8144768
-1.0825005 -0.18542257 1.7838985
-1.0705354 -0.1810789 1.7364233
-1.0684754 -0.17849725 1.706127
-1.0798608 -0.17819741 1.6978526
-1.0433933 -0.1701034 1.6148283
-1.0590261 -0.1705949 1.614251
-1.0708634 -0.17047064 1.6077129
-1.0837723 -0.17051783 1.6027428
-1.0955456 -0.17038736 1.5960227
1.4077129 -0.23208795 2.0192263
1.3969018 -0.2329506 2.0338635
1.3870671 -0.23399805 2.0501003
1.3600488 -0.23213713 2.0405562
1.3457346 -0.23242609 2.0499215
1.3087754 -0.22876389 2.0239947
1.3041586 -0.23073448 2.0481496
1.2698157 -0.22742961 2.025002
1.2545871 -0.22750844 2.0320363
1.2372694 -0.2272056 2.0355456
1.2098017 -0.22500728 2.0217922
1.1901253 -0.22421975 2.0206473
1.1774776 -0.22475313 2.0314064
1.1588578 -0.22414565 2.0316899
1.1470777 -0.2248625 2.0439866
1.128969 -0.22434141 2.0448668
1.1260231 -0.22686072 2.0736339
1.0942965 -0.22357087 2.0488045
1.0841407 -0.22465707 2.0642405
1.0592995 -0.22268751 2.0512841
1.0454452 -0.2230037 2.059418
1.0196067 -0.22073485 2.0433724
0.99927247 -0.21960697 2.0378079
0.9837929 -0.21952775 2.0419383
0.98439115 -0.22308967 2.0801859
0.96366382 -0.22185501 2.0733442
0.94308305 -0.22061482 2.0663154
0.91577381 -0.21773428 2.0436401
0.89957923 -0.21744446 2.0453176
0.88536942 -0.21763265 2.0514424
0.86726636 -0.21685389 2.0482917
0.85911524 -0.21857983 2.0689149
0.84065557 -0.21769781 2.0646052
0.82340026 -0.21710132 2.0629156
0.80693251 -0.21669424 2.0629416
0.79086149 -0.21638037 2.0637691
0.76578718 -0.21354385 2.0402229
0.74926287 -0.21302712 2.038872
0.73279685 -0.21250665 2.0373907
0.71967173 -0.21295357 2.045176
0.70615572 -0.21330099 2.0519347
0.68943143 -0.21267353 2.0491641
0.67339891 -0.21223682 2.0481529
0.64985907 -0.20936216 2.023313
0.64236939 -0.21164516 2.0486135
0.62675637 -0.21129559 2.0481939
0.61344308 -0.21172312 2.0552909
0.59260821 -0.20951229 2.0364861
0.57826275 -0.20954265 2.0395281
0.5694285 -0.21162273 2.0626261
0.54620254 -0.20832309 2.03281
0.53440684 -0.20932254 2.0451617
0.51784742 -0.20845973 2.0391121
0.50187057 -0.20778897 2.0348661
0.48896736 -0.20838873 2.0430849
0.46927547 -0.20604411 2.0221298
0.46138039 -0.20889439 2.0524812
0.46296495 -0.21635823 2.1285377
0.43322432 -0.20919241 2.0595591
0.41841823 -0.20899318 2.0595405
0.40040261 -0.20711952 2.04281
0.39033684 -0.20937164 2.0670125
0.37041998 -0.20630983 2.0382881
0.35414395 -0.20511247 2.0280206
0.3422699 -0.20647106 2.0431507
0.32754502 -0.20615312 2.0415065
0.31420669 -0.20671865 2.0486121
0.29949924 -0.20639433 2.0467682
0.28714862 -0.2077428 2.061578
0.27124146 -0.20652466 2.050662
0.25709322 -0.20658511 2.0524642
0.24026464 -0.20437272 2.0314381
0.22777811 -0.20580818 2.0468769
0.21345168 -0.20566145 2.0464029
0.19895092 -0.20531394 2.043849
0.1844061 -0.20486428 2.0402026
0.17057738 -0.2052016 2.0443876
0.15572046 -0.2042512 2.0355806
0.14236285 -0.2052739 2.0465226
0.12805983 -0.20500867 2.0444663
0.11390141 -0.20493783 2.0442982
0.099751152 -0.20486374 2.0440333
0.085320361 -0.20409417 2.0367117
0.071961232 -0.20609015 2.0571356
0.057106603 -0.20373166 2.0337052
0.043538004 -0.20591919 2.0559344
0.029272845 -0.20533422 2.0502131
0.015073435 -0.20454808 2.0424039
0.00098658528 -0.20464885 2.0434537
-0.01305692 -0.20385616 2.0354519
-0.02692507 -0.20256567 2.0223799
-0.039537095 -0.19593115 1.9554904
-0.045051102 -0.16644828 1.6587428
-0.051507477 -0.15170145 1.5102112
-0.061869092 -0.15149054 1.5078356
-0.072247706 -0.1513761 1.5063838
-0.082555279 -0.15116043 1.5038682
-0.09350042 -0.15202975 1.5122088
-0.10483383 -0.15329172 1.5244416
-0.13091855 -0.17391917 1.7310857
-0.16673632 -0.20293467 2.0217383
-0.18006109 -0.20220312 2.0136149
-0.19574575 -0.20403643 2.0311601
-0.20812546 -0.20240997 2.0139382
-0.22374408 -0.20393993 2.0282986
-0.23634696 -0.20270272 2.014863
-0.25194395 -0.20402817 2.0270302
-0.26694688 -0.20475794 2.0331581
-0.28258678 -0.20587854 2.0431194
-0.29524967 -0.20482676 2.0312943
-0.30969867 -0.20505351 2.0321841
-0.32401818 -0.20517848 2.0319893
-0.33981019 -0.20618649 2.0405309
-0.35370651 -0.20600951 2.0371842
-0.36862734 -0.20641989 2.0396204
-0.37885585 -0.2042698 2.0165131
-0.39426973 -0.20496938 2.021697
-0.41270939 -0.20713927 2.0414004
-0.42273203 -0.20508078 2.0190492
-0.44167024 -0.20734078 2.0394676
-0.45831898 -0.20841812 2.0480633
-0.46999106 -0.20723562 2.0342174
-0.48607731 -0.20801184 2.0396776
-0.50014019 -0.20790249 2.0363116
-0.51563478 -0.20837781 2.0386407
-0.52869678 -0.207871 2.0312183
-0.54602635 -0.20902458 2.0400643
-0.56481391 -0.21066263 2.0535686
-0.57790303 -0.21014652 2.04583
-0.59201539 -0.21001858 2.0418341
-0.60920149 -0.21096122 2.0482409
-0.62016243 -0.20975438 2.0335517
-0.63861877 -0.21107993 2.043524
-0.6476 -0.20928442 2.0229855
-0.66956979 -0.21167322 2.043118
-0.68650496 -0.21240249 2.0469899
-0.69839466 -0.21157287 2.0356512
-0.71310949 -0.21161553 2.0327051
-0.72615147 -0.21116997 2.0249646
-0.74660718 -0.21285558 2.0377188
-0.7593047 -0.21230698 2.0288267
-0.77615452 -0.21291821 2.0310242
-0.79990149 -0.21536376 2.0507202
-0.81518221 -0.21548229 2.0479677
-0.83121115 -0.21579087 2.0469477
-0.83515942 -0.21300742 2.0163445
-0.85989147 -0.21552946 2.0362723
-0.87242776 -0.21496095 2.0266633
-0.89083731 -0.21583436 2.0306666
-0.90894419 -0.21660703 2.033601
-0.91279286 -0.21401177 2.0046341
-0.94084173 -0.21708278 2.0290594
-0.94689077 -0.21506102 2.0054193
-0.96209216 -0.21514824 2.0015569
-0.98859346 -0.21772142 2.0208604
-1.0039481 -0.21779953 2.0166879
-1.024662 -0.21902089 2.0230706
-1.0364532 -0.21832727 2.0115356
-1.0504357 -0.21810843 2.0043483
-1.0494807 -0.21483797 1.9689033
-1.0598786 -0.21395016 1.9554847
-1.0496125 -0.20897259 1.9044561
-1.0652931 -0.20922567 1.9015206
-1.0677694 -0.20691322 1.8750539
-1.0818291 -0.2068768 1.8693643
-1.0808196 -0.20399711 1.83777
-1.0860265 -0.20234956 1.8174121
-1.0807395 -0.1988133 1.7800111
-1.0832999 -0.19679107 1.7563592
-1.0855882 -0.19477004 1.7327566
-1.084419 -0.19218554 1.7041534
-1.0533797 -0.1844335 1.6295373
-1.0528383 -0.18214236 1.6038452
-1.0750304 -0.18379182 1.6131362
-1.0896449 -0.18412244 1.6106164
-1.0981184 -0.1834197 1.5989155
1.4017353 -0.24701859 2.0093825
1.3943484 -0.24853891 2.0289068
1.3862047 -0.24995808 2.0475986
1.3668872 -0.24937214 2.04968
1.3465242 -0.2485792 2.0499246
1.3385922 -0.25008965 2.0692408
1.3086578 -0.2474761 2.0540664
1.281633 -0.24535514 2.0428002
1.2543124 -0.24312381 2.0304091
1.2411122 -0.24360766 2.0407355
1.2232594 -0.24317899 2.0432768
1.2094542 -0.24355423 2.0525374
1.1921102 -0.24321741 2.0556681
1.1713538 -0.24216609 2.0525956
1.1502186 -0.24100702 2.048465
1.1382892 -0.24177153 2.0607126
1.1149175 -0.2400932 2.0518773
1.0866007 -0.23728773 2.0331497
1.0765445 -0.23844682 2.048527
1.0581621 -0.2377685 2.0479276
1.0447706 -0.23820826 2.0569417
1.0260105 -0.23741882 2.055171
1.0099432 -0.23723805 2.0586042
0.98315001 -0.2344934 2.0394793
0.97486871 -0.23614733 2.058794
0.95136428 -0.23410769 2.0455763
0.93507534 -0.23380646 2.0475345
0.91678762 -0.2329874 2.0448201
0.91491026 -0.23638096 2.0793238
0.88870281 -0.23349696 2.0581262
0.87440217 -0.23369588 2.0641749
0.8577897 -0.23327306 2.0646062
0.83935273 -0.23233016 2.0602953
0.82541859 -0.23262201 2.0669243
0.80135274 -0.23001651 2.0474989
0.78962588 -0.23092127 2.0594471
0.76318663 -0.22747558 2.0321865
0.75012016 -0.22795895 2.0401669
0.74735415 -0.23165438 2.0770993
0.72148061 -0.22819191 2.0493021
0.70310396 -0.22700585 2.0419552
0.68864733 -0.22706193 2.0457723
0.67479199 -0.22732297 2.051379
0.65938383 -0.22706091 2.0521541
0.64488649 -0.22710772 2.0556636
0.62950712 -0.22683886 2.0562165
0.61358762 -0.22635794 2.0547483
0.59910041 -0.22639485 2.0579362
0.58217478 -0.22548915 2.0524075
0.57008821 -0.22645937 2.0640085
0.55300057 -0.22544174 2.0572832
0.53503448 -0.22400144 2.0465713
0.5204041 -0.22391658 2.0482476
0.50956237 -0.22550347 2.0652757
0.48862532 -0.2225848 2.0406466
0.4743036 -0.2225942 2.0429645
0.45867407 -0.22197133 2.0393591
0.44857746 -0.22407213 2.0609107
0.42885381 -0.22134387 2.0376399
0.41733778 -0.22280982 2.0531912
0.40315944 -0.22290821 2.0559905
0.3862133 -0.22142702 2.0440316
0.36909726 -0.21973105 2.0299814
0.35728911 -0.22118573 2.0451899
0.3420265 -0.22053388 2.0407124
0.32887623 -0.22124657 2.0488904
0.31398308 -0.22079822 2.0461705
0.29599684 -0.21802896 2.0216932
0.28462839 -0.22010125 2.0423813
0.26923478 -0.21911502 2.0344152
0.25580487 -0.21970621 2.0411382
0.24032365 -0.21850161 2.0309837
0.22859776 -0.22077392 2.0533316
0.21360581 -0.21998419 2.0469298
0.20005164 -0.22066817 2.0542779
0.18542884 -0.22018784 2.050642
0.17004403 -0.21864814 2.0369935
0.15726495 -0.22048345 2.0549622
0.14191763 -0.21872507 2.0391216
0.12821437 -0.21939218 2.0459969
0.11376429 -0.2187883 2.0408664
0.099823505 -0.21913165 2.0445738
0.08534123 -0.21820359 2.0362651
0.071219005 -0.21801165 2.0348117
0.057176035 -0.21802756 2.0352497
0.043151233 -0.21814567 2.0365858
0.029167132 -0.21868311 2.0418038
0.01495322 -0.21689174 2.0250506
0.00097729056 -0.21668231 2.0231161
-0.013104454 -0.21868911 2.0419683
-0.027076334 -0.21773283 2.0328822
-0.040605083 -0.21508208 2.0077944
-0.052480102 -0.20724957 1.9339111
-0.055321999 -0.17415762 1.6224376
-0.062258001 -0.16294163 1.5167024
-0.072607823 -0.16260794 1.5132619
-0.082697444 -0.16184916 1.5057803
-0.094389714 -0.16404569 1.5260242
-0.12575701 -0.19655067 1.8309134
-0.15267701 -0.21679293 2.0204046
-0.16807622 -0.21865399 2.0371552
-0.18063377 -0.21681635 2.0191216
-0.19541499 -0.21772002 2.026751
-0.21020748 -0.21851434 2.0332837
-0.22455712 -0.21877751 2.0347676
-0.23882179 -0.21893166 2.0351634
-0.25249329 -0.2185552 2.0305252
-0.26585531 -0.21796478 2.0238245
-0.28062582 -0.21853042 2.0278742
-0.29418573 -0.21814439 2.0229597
-0.31081611 -0.21996649 2.0386033
-0.32503071 -0.21999459 2.0374172
-0.33924383 -0.22001934 2.0361328
-0.35261002 -0.21951486 2.0298505
-0.36801428 -0.22026919 2.0352273
-0.38186774 -0.22007374 2.0316908
-0.39909342 -0.22176614 2.045635
-0.41300508 -0.2215637 2.0418885
-0.42951614 -0.22272265 2.0507064
-0.44428617 -0.22293307 2.0506434
-0.45778188 -0.2225109 2.0446506
-0.47166198 -0.22229557 2.040509
-0.48619479 -0.22239144 2.0391767
-0.50026125 -0.22227465 2.0358098
-0.51454788 -0.22225943 2.0333109
-0.53081602 -0.22307776 2.0384159
-0.54641312 -0.22357844 2.0405102
-0.56468588 -0.22512002 2.0520806
-0.57884669 -0.2249862 2.0481756
-0.5872038 -0.22265822 2.0241027
-0.60624707 -0.22439669 2.0372117
-0.61541104 -0.22248256 2.0168393
-0.63877022 -0.22567065 2.0429816
-0.65227562 -0.22531304 2.0366712
-0.66849691 -0.22588876 2.0387838
-0.68478066 -0.22646055 2.0407693
-0.69342834 -0.2245359 2.0200326
-0.71000654 -0.22520539 2.0227544
-0.7263242 -0.22576708 2.0244067
-0.74168122 -0.22601396 2.0231259
-0.75844419 -0.2266715 2.0254583
-0.77139604 -0.22618674 2.0174265
-0.78966612 -0.22725043 2.0232241
-0.80878747 -0.22851592 2.0307155
-0.82172912 -0.22802134 2.0223558
-0.84102994 -0.22927774 2.0295522
-0.84893328 -0.22743727 2.009059
-0.86637288 -0.22817078 2.0114181
-0.89580739 -0.23198612 2.0409894
-0.9079392 -0.23126888 2.0302444
-0.92365843 -0.23147385 2.0275857
-0.9339807 -0.23034129 2.0130596
-0.94795179 -0.23012999 2.0065923
-0.97088081 -0.23206635 2.0188792
-0.98577106 -0.23205166 2.0139427
-1.011224 -0.23448671 2.0302975
-1.0181823 -0.23262458 2.0090692
-1.0362283 -0.23331293 2.0099804
-1.0469934 -0.2323657 1.9966167
-1.0455306 -0.22876967 1.9603376
-1.0596486 -0.2286354 1.953959
-1.0551138 -0.22453533 1.9134387
-1.066512 -0.223891 1.9026357
-1.0704739 -0.22172365 1.8787733
-1.0830801 -0.2213802 1.8704748
-1.0901113 -0.21992101 1.8526386
-1.0873117 -0.21654145 1.8185335
-1.0820432 -0.21276201 1.781146
-1.0908508 -0.21181035 1.7676822
-1.0722231 -0.2056209 1.7102363
-1.0809952 -0.20477286 1.6977298
-1.0595894 -0.19829763 1.6382701
-1.0640002 -0.19675064 1.6200551
-1.0791795 -0.19720785 1.6184618
-1.0855243 -0.19605884 1.6035129
-1.0995537 -0.19630817 1.600069
1.4263154 -0.26754543 2.0435815
1.3912148 -0.26395845 2.0230236
1.3742259 -0.26376444 2.0284839
1.3555835 -0.26324484 2.0313182
1.3347987 -0.26229176 2.0306609
1.3205414 -0.26261395 2.0398502
1.2993132 -0.26154074 2.0380161
1.2734464 -0.25949585 2.0283906
1.2560991 -0.25915766 2.032064
1.2382526 -0.2587066 2.0347421
1.2239907 -0.25900245 2.0432513
1.2091731 -0.25918692 2.0508013
1.1873677 -0.25785872 2.0461812
1.1740233 -0.25835702 2.0560598
1.1494677 -0.25636834 2.0458801
1.133244 -0.25620896 2.0502756
1.1179641 -0.2562615 2.0562925
1.1003304 -0.25576833 2.0578043
1.0781355 -0.25418574 2.0503566
1.0638173 -0.25444123 2.057735
1.0422902 -0.25295478 2.0508113
1.0209157 -0.25146157 2.0436876
1.0114511 -0.25290102 2.0604942
0.98978996 -0.25128826 2.0521605
0.97633499 -0.25174108 2.0607166
0.9640646 -0.25251853 2.0718908
0.94881761 -0.25252885 2.0766554
0.91738337 -0.24816065 2.0449848
0.89399952 -0.24586099 2.0302866
0.88614553 -0.24782667 2.0509911
0.87111491 -0.24781843 2.0551906
0.8515234 -0.24648966 2.0482535
0.82722729 -0.24372734 2.0291667
0.82375979 -0.24711294 2.0615833
0.80944669 -0.24731012 2.0671799
0.7901479 -0.24596271 2.0596721
0.77550972 -0.24604222 2.0641041
0.75914729 -0.24556708 2.0637636
0.74383318 -0.24541886 2.0661037
0.72426212 -0.24383144 2.0561345
0.71419197 -0.24544312 2.0732667
0.69541609 -0.2440678 2.0649071
0.67771757 -0.24301915 2.059222
0.660133 -0.24196573 2.0533926
0.64354998 -0.24123995 2.0502663
0.63051271 -0.24184045 2.0584195
0.61880893 -0.24299313 2.0712552
0.58846766 -0.23670524 2.0200608
0.58472902 -0.24107115 2.0603836
0.56942469 -0.24077028 2.0604956
0.5503034 -0.23879725 2.0460925
0.53090894 -0.236596 2.0296021
0.51930499 -0.2378408 2.0428152
0.50257933 -0.23674391 2.0356951
0.4866668 -0.23597693 2.0313437
0.48222449 -0.2408935 2.0762575
0.46202731 -0.23800093 2.0533137
0.44657749 -0.23744637 2.0505905
0.43179744 -0.2372229 2.0506716
0.41802111 -0.23755446 2.0555184
0.40248975 -0.23687673 2.0514944
0.38685051 -0.23608309 2.0463791
0.37394908 -0.23696348 2.0558157
0.35753983 -0.23560257 2.0455906
0.34324628 -0.23558071 2.0470014
0.32660413 -0.23387516 2.0335941
0.31450316 -0.23541421 2.0485449
0.29992539 -0.23515742 2.0476923
0.28578278 -0.23523323 2.0496902
0.27123851 -0.23496902 2.048636
0.25770381 -0.23559859 2.0553687
0.24455337 -0.23667377 2.0659602
0.22995946 -0.23639886 2.0646169
0.21283478 -0.2333132 2.0384624
0.19885312 -0.23347926 2.0408554
0.1852929 -0.2342034 2.0481021
0.17279175 -0.23649706 2.0691235
0.15805323 -0.23586623 2.0643084
0.14270361 -0.23410758 2.0494771
0.12879886 -0.23459284 2.0543697
0.11346066 -0.23226394 2.0343647
0.099701785 -0.23296653 2.0410459
0.086228408 -0.23467763 2.0565703
0.071476921 -0.23289916 2.0412211
0.057161424 -0.23201641 2.0337145
0.04328651 -0.23292939 2.0420041
0.028835522 -0.23012704 2.0174124
0.014949396 -0.23080768 2.0235236
0.00098514289 -0.23249698 2.0384827
-0.013031447 -0.23148306 2.0294986
-0.027095687 -0.23192768 2.0333362
-0.040814128 -0.23011912 2.0172081
-0.05492815 -0.23089382 2.0238352
-0.066852711 -0.22401753 1.9628342
-0.066520751 -0.18531574 1.620796
-0.072730787 -0.17337839 1.5150948
-0.08456517 -0.1761685 1.5393677
-0.11654432 -0.21560042 1.8868771
-0.13829073 -0.23006667 2.0139236
-0.15263815 -0.2307028 2.018878
-0.16649188 -0.23054862 2.0167985
-0.1822584 -0.23286217 2.0364008
-0.1962177 -0.23270035 2.0341203
-0.20934245 -0.23163672 2.0238376
-0.22536626 -0.23371311 2.0411294
-0.2383014 -0.23253031 2.0296736
-0.25376907 -0.23381282 2.0398347
-0.26810178 -0.23396939 2.0400262
-0.28299013 -0.23457079 2.0440555
-0.29581603 -0.23348685 2.0332253
-0.30984572 -0.2334086 2.0311594
-0.32448298 -0.23377487 2.0329235
-0.33851033 -0.2336895 2.0306621
-0.35370451 -0.23438416 2.0351593
-0.36932769 -0.23529857 2.0415008
-0.3825022 -0.23464297 2.0340483
-0.39842755 -0.23566134 2.0411465
-0.40918496 -0.23365827 2.021817
-0.42637476 -0.23533943 2.0345438
-0.44250458 -0.23634577 2.041301
-0.45680678 -0.23634343 2.0392032
-0.46976778 -0.23566847 2.0311942
-0.48538905 -0.2363285 2.034709
-0.50061047 -0.23676161 2.036175
-0.5170868 -0.23774764 2.042347
-0.53392148 -0.23884055 2.0493519
-0.54679149 -0.23814908 2.0408552
-0.55564231 -0.23578753 2.0178995
-0.5789755 -0.23953603 2.0475459
-0.59366477 -0.23961252 2.0454524
-0.59934199 -0.23613469 2.0127552
-0.62016267 -0.23864627 2.0314393
-0.63390231 -0.2383807 2.0262034
-0.65181869 -0.23966265 2.0341341
-0.66956866 -0.24082893 2.0409696
-0.68524635 -0.241216 2.0410564
-0.69679123 -0.24016251 2.028795
-0.71310973 -0.24076377 2.0305493
-0.72581935 -0.24014685 2.0218759
-0.74762613 -0.24250503 2.0383399
-0.7565338 -0.24066891 2.0191987
-0.77544856 -0.24202545 2.026978
-0.78732604 -0.24117601 2.0160568
-0.807136 -0.24274321 2.0254018
-0.82674384 -0.24419463 2.0336468
-0.84007722 -0.24377432 2.0260909
-0.85719579 -0.24444798 2.0276129
-0.87086183 -0.24413091 2.0207691
-0.88964164 -0.24523404 2.0256774
-0.89844936 -0.24359725 2.0077112
-0.92139566 -0.24578483 2.0214164
-0.93376422 -0.24512605 2.011426
-0.95533109 -0.2468648 2.0211585
-0.96979934 -0.2467439 2.0154381
-0.98684657 -0.24727289 2.014977
-1.003498 -0.2476884 2.0134842
-1.0166061 -0.24722996 2.0047522
-1.0359887 -0.24828854 2.0083218
-1.050424 -0.24814814 2.0020182
-1.0415671 -0.24258687 1.9516816
-1.0575182 -0.24287775 1.9488304
-1.06012 -0.24013682 1.9214329
-1.0503143 -0.23469755 1.8723727
-1.0687577 -0.23563156 1.8745975
-1.0808471 -0.23515862 1.8654494
-1.0818368 -0.23231433 1.8373339
-1.0870585 -0.2304402 1.8169889
-1.0781987 -0.22566628 1.7736678
-1.072947 -0.22175758 1.7373396
-1.0861462 -0.22171175 1.7315662
-1.0908272 -0.2199495 1.7122408
-1.0577304 -0.21070424 1.6343427
-1.0594102 -0.20852441 1.6119833
-1.0630261 -0.20677249 1.5929971
-1.0891455 -0.20938766 1.6078914
-1.0897776 -0.20709908 1.5846949
1.4276528 -0.28400674 2.0441222
1.4059942 -0.2829105 2.0432947
1.3966208 -0.28428945 2.0604019
1.3338362 -0.27470091 1.9971405
1.3404391 -0.27934447 2.0379424
1.3196744 -0.27832779 2.0371423
1.2989893 -0.27730343 2.0361521
1.272604 -0.27502182 2.0256987
1.2703412 -0.27796143 2.0539255
1.2394874 -0.27464038 2.0354505
1.2247039 -0.27484065 2.0431154
1.2033519 -0.27355292 2.0395262
1.1865786 -0.27328584 2.0434859
1.1649125 -0.27186978 2.0386679
1.1530571 -0.27273604 2.0509975
1.1372675 -0.2726827 2.0562921
1.1370411 -0.27641121 2.0903103
1.1009917 -0.27141374 2.0577428
1.058557 -0.26467699 2.01157
1.0653707 -0.2702373 2.0594642
1.0295012 -0.26497516 2.0241871
1.0136015 -0.26477256 2.0276673
1.0077202 -0.26722044 2.051559
0.98611355 -0.26550958 2.0432134
0.96552181 -0.26402277 2.0364647
0.95299309 -0.26472864 2.0466602
0.94078499 -0.26554775 2.057683
0.91756129 -0.26323351 2.044136
0.91486973 -0.26683062 2.0767798
0.8878848 -0.26334417 2.0538027
0.87128472 -0.26287076 2.0543544
0.84752208 -0.26018196 2.0373318
0.82888556 -0.25899896 2.0320485
0.81659442 -0.25979176 2.0422983
0.80528545 -0.26093212 2.0552521
0.78818291 -0.26020283 2.0532961
0.76837194 -0.25853419 2.0437586
0.75691259 -0.25966531 2.0564346
0.73762804 -0.25810349 2.0475404
0.72178477 -0.2577067 2.0478537
0.70404643 -0.2566027 2.0424082
0.69335049 -0.25807306 2.0575361
0.67878056 -0.25813401 2.061286
0.65875757 -0.25607792 2.047904
0.64545542 -0.25660035 2.0552037
0.63353163 -0.25770774 2.067168
0.60339689 -0.25128385 2.0181351
0.59742361 -0.25485414 2.0498748
0.58350176 -0.25512725 2.0548637
0.55981684 -0.25103632 2.0243268
0.54939324 -0.25283343 2.0415344
0.53127152 -0.25108919 2.02986
0.52330285 -0.25417978 2.0575099
0.50173998 -0.25065535 2.031137
0.48929846 -0.25161454 2.0412767
0.48120636 -0.25493604 2.0706933
0.45930827 -0.25092235 2.0400112
0.44730046 -0.25222734 2.0528035
0.43107471 -0.25116155 2.0460882
0.41712523 -0.2513943 2.0499551
0.40181431 -0.25079396 2.0469055
0.39004633 -0.25244221 2.0622857
0.37261489 -0.25041088 2.0473106
0.35574722 -0.24861152 2.0341518
0.34282914 -0.24953742 2.0433867
0.32901949 -0.24986653 2.0476389
0.31486854 -0.24995452 2.0498354
0.29955965 -0.24908805 2.0440745
0.28543419 -0.24916823 2.0460699
0.27077773 -0.24876902 2.0440311
0.25689876 -0.24907947 2.047801
0.24158968 -0.24795845 2.0396442
0.22716866 -0.24766611 2.0382836
0.21400632 -0.2487983 2.0486739
0.19937338 -0.2482602 2.0451443
0.18426567 -0.24700339 2.035578
0.17085767 -0.24800549 2.0447032
0.15703195 -0.2485275 2.0497806
0.14191167 -0.24690093 2.0369368
0.12851724 -0.2482494 2.0487573
0.11326525 -0.24589929 2.0297585
0.099386156 -0.2462865 2.0334587
0.085255019 -0.24607378 2.032105
0.071319528 -0.24645327 2.035615
0.057866137 -0.24909452 2.0578885
0.043149389 -0.24624673 2.0344112
0.029137671 -0.24661456 2.0376358
0.015047306 -0.24638224 2.0358012
0.00098535186 -0.24662298 2.0378413
-0.012932955 -0.24363989 2.012979
-0.027009515 -0.24518465 2.0257494
-0.041022431 -0.24529441 2.0265105
-0.055073742 -0.24551946 2.0281675
-0.068679929 -0.24407135 2.0158365
-0.080707178 -0.23844677 1.968694
-0.08676292 -0.21934859 1.8094172
-0.10833498 -0.23934785 1.9753386
-0.12270901 -0.24074593 1.9864451
-0.13892876 -0.24511895 2.0222125
-0.15311725 -0.24543585 2.0241873
-0.16669033 -0.24479578 2.0181475
-0.18133032 -0.24570042 2.0248744
-0.19607024 -0.24660085 2.0314965
-0.21141657 -0.24809226 2.0429511
-0.22508934 -0.24755584 2.0375128
-0.23892741 -0.24725382 2.033957
-0.25406635 -0.24825664 2.0411477
-0.26764467 -0.24770914 2.035428
-0.28223842 -0.24810922 2.0374887
-0.29701504 -0.2486241 2.0404286
-0.31244013 -0.2496101 2.04719
-0.32253161 -0.24643493 2.0195124
-0.3366369 -0.24646375 2.0182438
-0.35327321 -0.24826898 2.0315549
-0.37203938 -0.25137404 2.0554838
-0.38331282 -0.24937391 2.0372796
-0.39870068 -0.2500979 2.0414393
-0.41083834 -0.24880354 2.0289359
-0.42383543 -0.24809872 2.0212233
-0.44238907 -0.25058696 2.0396397
-0.45798144 -0.25129449 2.0433571
-0.47053468 -0.2503421 2.0334082
-0.48686543 -0.25139642 2.0398109
-0.50142288 -0.25150093 2.0383682
-0.51501614 -0.25112945 2.0329704
-0.53079897 -0.25181684 2.0361352
-0.54154438 -0.25014123 2.0199871
-0.56099969 -0.25247145 2.0363557
-0.5807066 -0.25479534 2.0525527
-0.59158796 -0.25322792 2.0370865
-0.60651022 -0.25342372 2.0358529
-0.62605512 -0.25549692 2.0497162
-0.63963395 -0.25509638 2.0434918
-0.65617073 -0.25586706 2.0466411
-0.66693842 -0.25440362 2.0317192
-0.67973369 -0.25375947 2.0233409
-0.70270675 -0.25686252 2.0449612
-0.70835221 -0.25363433 2.0157237
-0.73464102 -0.25777903 2.0454397
-0.74370021 -0.25583395 2.0263646
-0.75773007 -0.25564083 2.021224
-0.77137536 -0.25532767 2.0150573
-0.79574817 -0.25851113 2.0365779
-0.80693531 -0.25737309 2.0236876
-0.82505143 -0.25844625 2.0282383
-0.83911264 -0.25823382 2.0225315
-0.85390794 -0.25825074 2.018559
-0.86908329 -0.25838009 2.0153904
-0.88902503 -0.25989848 2.0230329
-0.90629452 -0.26059866 2.0241413
-0.92321664 -0.26117799 2.0242014
-0.93519753 -0.26036322 2.0132985
-0.94243437 -0.25827387 1.9924346
-0.97898227 -0.26415783 2.0334072
-0.98616952 -0.26206106 2.0123312
-0.99884534 -0.26146373 2.0028255
-1.0199302 -0.26305276 2.0100961
-1.0357341 -0.26325339 2.0065598
-1.0492476 -0.26287454 1.9984945
-1.0566586 -0.26099893 1.9789258
-1.0539602 -0.25671315 1.9409833
-1.0589046 -0.25438097 1.9179838
-1.0544046 -0.24987376 1.878516
-1.0694727 -0.25006214 1.874651
-1.0766186 -0.24841769 1.8568866
-1.0730493 -0.24437569 1.8210986
-1.0878038 -0.2445569 1.817057
-1.0789577 -0.23949493 1.7737622
-1.0908444 -0.23910409 1.765412
-1.083252 -0.23450603 1.7257684
-1.0762271 -0.23014151 1.687995
-1.0580028 -0.22351629 1.6336769
-1.0548066 -0.22018595 1.6038363
-1.0781063 -0.22239983 1.6147273
-1.0894254 -0.22211953 1.6072227
-1.1006944 -0.22183554 1.5996387
1.4210449 -0.29882762 2.0331249
1.387691 -0.29516521 2.0150485
1.3707414 -0.29494742 2.0204926
1.3543345 -0.29484272 2.0266259
1.3140203 -0.28946891 1.9960567
1.3182509 -0.29389673 2.0334914
1.2975838 -0.29281405 2.0325017
1.2859321 -0.29376414 2.0456412
1.2544177 -0.29014379 2.0265718
1.2453271 -0.291684 2.0436914
1.2228593 -0.29009032 2.0386026
1.2075541 -0.29017648 2.0452912
1.2041218 -0.2931554 2.0725019
1.1856762 -0.29250991 2.0738609
1.1527565 -0.28822795 2.0490615
1.1403166 -0.28901955 2.0604475
1.1244761 -0.28895926 2.0656443
1.0932522 -0.28488854 2.0417941
1.0900023 -0.28809536 2.0703943
1.0678151 -0.28631726 2.0628467
1.0493704 -0.28550518 2.0621789
1.0393773 -0.28700262 2.0782452
1.0052819 -0.28178927 2.0452075
0.98971784 -0.28169006 2.0493901
0.97076666 -0.28060865 2.0462708
0.95941007 -0.28172302 2.059202
0.93643612 -0.27940699 2.0467699
0.93308192 -0.28296506 2.0776289
0.90587819 -0.27928853 2.0548925
0.88726109 -0.27817965 2.0510321
0.86758918 -0.27669623 2.0442681
0.85184717 -0.27643606 2.0465031
0.83127606 -0.2745716 2.0366602
0.82407099 -0.27713445 2.0598359
0.80867231 -0.27698556 2.0626612
0.79044956 -0.27584556 2.0579536
0.77649975 -0.27618155 2.0642495
0.76011938 -0.27564925 2.0639262
0.75113827 -0.27783257 2.0840309
0.72946131 -0.27531323 2.0685179
0.7048232 -0.27154824 2.0434189
0.69411045 -0.27310228 2.0585437
0.68106675 -0.27378672 2.0670154
0.66009116 -0.2712422 2.0508296
0.64912319 -0.27278787 2.0657139
0.6313386 -0.27147409 2.0587115
0.61509556 -0.27077651 2.0563195
0.60057265 -0.27082065 2.0595212
0.58172786 -0.26886946 2.0473416
0.56071597 -0.26579115 2.0263906
0.5525741 -0.26881197 2.0522196
0.54185909 -0.27071026 2.0693891
0.52315992 -0.26861438 2.0557251
0.50845766 -0.26850966 2.0573215
0.49582726 -0.26952508 2.0675006
0.47460315 -0.26578921 2.0408678
0.4578827 -0.26442116 2.0324402
0.44591787 -0.26579973 2.0452147
0.43197137 -0.26604947 2.049181
0.4174026 -0.26592001 2.0501356
