# .PCD v0.7 - Point Cloud Data file format
VERSION 0.7
FIELDS x y z
SIZE 4 4 4
TYPE F F F
COUNT 1 1 1
WIDTH 1491
HEIGHT 1
VIEWPOINT 0 0 0 1 0 0 0
POINTS 1491
DATA ascii
-1.209478 0.24937071 1.960423
-1.2530962 0.25517151 2.0001411
-1.2644165 0.254334 1.9872206
-1.2825979 0.25488022 1.9851199
-1.2742338 0.25020108 1.942029
-1.2927488 0.25084779 1.9406265
-1.3124164 0.25170052 1.940711
-1.3444642 0.25488061 1.9586965
1.3955181 0.24528927 2.0004516
1.383148 0.24590713 2.0125351
1.3795582 0.24811856 2.0377569
1.3432851 0.24443468 2.0140712
1.3454498 0.24774079 2.0483263
1.2934465 0.24103236 1.9989821
1.3182414 0.24864605 2.0692718
1.2758596 0.24362044 2.0335772
1.2465231 0.24099141 2.0177534
1.2370104 0.24217685 2.0339885
1.2202212 0.24194987 2.0382118
1.2029356 0.24161734 2.0414402
1.1866615 0.24148186 2.0462503
1.1522421 0.23760106 2.0189018
1.1419955 0.23866743 2.0337579
1.1191684 0.23709774 2.0258856
1.1073718 0.23785377 2.0379333
1.1061889 0.24094285 2.0701268
1.0779344 0.23813942 2.051239
1.0486385 0.23502138 2.0294042
1.0447799 0.23759656 2.0570073
1.0211612 0.23568778 2.0454311
1.0012422 0.23458804 2.040782
0.98702276 0.23481044 2.0476201
0.96387637 0.23288292 2.0354517
0.94762069 0.23258555 2.0375121
0.93795836 0.23392294 2.0539405
0.92488402 0.23443927 2.06306
0.89740062 0.2312596 2.0392797
0.88048202 0.23074088 2.0389903
0.87171125 0.23237632 2.0578203
0.85172981 0.23102821 2.0499568
0.83637726 0.23090997 2.0529816
0.81003183 0.22769739 2.0281515
0.79343641 0.22715735 2.027164
0.78432643 0.22878039 2.0455658
0.76354092 0.22699474 2.0331807
0.74808115 0.22675346 2.0346227
0.73364496 0.22681899 2.0387588
0.7195186 0.22698493 2.043731
0.70632678 0.22745873 2.0514288
0.68991446 0.2268935 2.049608
0.66800702 0.22445737 2.0306406
0.65455478 0.22481719 2.0370553
0.64430112 0.22631684 2.0538263
0.6228621 0.223866 2.0343909
0.61641961 0.22681667 2.0643458
0.58999521 0.22237954 2.0264673
0.57759821 0.22314008 2.0361941
0.55826044 0.2211895 2.0209079
0.54403251 0.22121422 2.0237119
0.53404045 0.22300908 2.0427821
0.51749086 0.22208929 2.0367365
0.50412613 0.22252281 2.0431194
0.48931977 0.22232674 2.0436099
0.47386152 0.22181366 2.0410869
0.45824513 0.22119227 2.0374784
0.44144139 0.21993932 2.027921
0.42682445 0.21972875 2.0279653
0.41340828 0.22014315 2.0337546
0.39271373 0.21657319 2.0023615
0.38181782 0.21834286 2.0206332
0.3701604 0.21979612 2.0359132
0.35270536 0.21778542 2.0187941
0.33664483 0.21650451 2.0083997
0.32465497 0.21784398 2.0224342
0.30679902 0.21519031 1.99904
0.2912809 0.21400233 1.9892763
0.27563852 0.21260017 1.9774256
0.26172623 0.21245532 1.9772875
0.24463728 0.20957312 1.9513946
0.23475862 0.21289186 1.9836352
0.22215594 0.21399967 1.9950742
0.20858787 0.21426287 1.9985212
0.19708772 0.21683857 2.023653
0.18107492 0.2144637 2.0021696
0.16791087 0.21534888 2.0112858
0.15470564 0.2163364 2.0213082
0.14061704 0.21616212 2.0203321
0.1257464 0.21461466 2.006356
0.11255689 0.21590844 2.0190818
0.098284289 0.21519679 2.0128493
0.084350199 0.21511395 2.0124788
0.070322126 0.21471146 2.0090315
0.056428295 0.21462172 2.0084701
0.042587176 0.21473935 2.0098019
0.028617626 0.21401021 2.0030849
0.014691029 0.21253963 1.9893113
0.00096681202 0.21380667 2.0012977
-0.012857567 0.21401607 2.0032463
-0.026379967 0.21158642 1.9802412
-0.039747477 0.20999689 1.9651014
-0.048439529 0.19079997 1.7838632
-0.051495627 0.16169417 1.5091848
-0.061693363 0.16104779 1.5028362
-0.072183929 0.16124204 1.5043665
-0.082428351 0.16090681 1.5008596
-0.092384927 0.16014768 1.4933139
-0.10298525 0.16054501 1.4966167
-0.11356068 0.16083437 1.498854
-0.12384684 0.16069986 1.4970528
-0.13420148 0.16066816 1.4961725
-0.14436032 0.16042341 1.4932418
-0.15499276 0.1607025 1.4951895
-0.16544197 0.16076849 1.4950855
-0.17578191 0.16072679 1.4939214
-0.1861136 0.16068259 1.492687
-0.19592237 0.16021547 1.4874377
-0.20661512 0.1604818 1.4890215
-0.21804902 0.16127084 1.4954512
-0.2273488 0.16048153 1.4870454
-0.23872106 0.16116017 1.4923348
-0.24822958 0.16057646 1.4857652
-0.2585043 0.16051534 1.4840367
-0.2706995 0.16160545 1.4930052
-0.28120619 0.16164398 1.4921006
-0.29114625 0.16136572 1.4881938
-0.30104643 0.16108535 1.4842221
-0.31151348 0.16111693 1.4831065
-0.32135263 0.1608322 1.4790009
-0.33330804 0.16159129 1.4845395
-0.3457998 0.16255638 1.4919232
-0.3570348 0.16289124 1.4933987
-0.36760008 0.16291012 1.4918923
-0.37767789 0.16271791 1.4883829
-0.38897008 0.16304515 1.4896207
-0.39978713 0.16316123 1.4888518
-0.41192317 0.16379584 1.4928024
-0.42332748 0.16411497 1.4937837
-0.43366534 0.16401516 1.4908568
-0.44539291 0.16443318 1.4926277
-0.45543712 0.16422474 1.4885968
-0.4695757 0.16546854 1.497798
-0.48024788 0.16546269 1.4955002
-0.49152827 0.16566207 1.4950187
-0.5037694 0.16616987 1.4972841
-0.52119857 0.16833206 1.5145155
-0.54936033 0.17380133 1.5616342
-0.65293044 0.20243071 1.8183265
-0.70802128 0.21520071 1.930652
-0.72692114 0.21669057 1.9406762
-0.74740702 0.21858801 1.9542513
-0.76883572 0.22068569 1.9694902
-0.78868461 0.22226179 1.9799006
-0.80350888 0.22239085 1.9772154
-0.81531084 0.22169356 1.9670594
-0.83663177 0.22356398 1.9797668
-0.84839624 0.22286063 1.9694065
-0.85728151 0.22143701 1.9525934
-0.88534957 0.22493377 1.9793924
-0.90563595 0.22637247 1.9877671
-0.91776377 0.22575857 1.9778831
-0.94247109 0.22820982 1.9949461
-0.94732422 0.22585216 1.9695654
-0.97013265 0.22778183 1.9817936
-0.99492288 0.23011218 1.9973656
-0.99628997 0.22703624 1.9655851
-1.024004 0.2299664 1.9861323
-1.0465435 0.23166734 1.995798
-1.0581032 0.23092403 1.9841418
-1.0780419 0.2320046 1.9881889
-1.0937952 0.23216718 1.9841979
-1.1032649 0.23100963 1.9687786
-1.1204102 0.23146874 1.9671801
-1.1415548 0.2327311 1.9723387
-1.1613249 0.23368402 1.9747186
-1.1786504 0.23412693 1.9726384
-1.1919008 0.23375939 1.9635928
-1.2009331 0.23258413 1.9476671
-1.2276592 0.23482232 1.9604429
-1.2705525 0.24006051 1.9981831
-1.2807512 0.23906948 1.9834791
-1.2712775 0.23447372 1.9387045
-1.3007303 0.23708121 1.9539341
-1.3287959 0.23937815 1.9663677
-1.3403034 0.23867364 1.9538275
1.3963951 0.22958791 2.0029149
1.3929881 0.23165812 2.0281689
1.3709825 0.23064752 2.0261948
1.3556662 0.23075172 2.0339775
1.3375933 0.23038368 2.0374734
1.3109375 0.22851063 2.0274096
1.2914044 0.22784865 2.0280147
1.2735087 0.2274628 2.0309818
1.2431543 0.22481428 2.0134239
1.2357372 0.2262992 2.033051
1.2220118 0.22665218 2.042398
1.2026947 0.22596374 2.0421963
1.1685522 0.2224351 2.0159359
1.165243 0.22475986 2.0430138
1.1383678 0.22254044 2.028394
1.1251514 0.22296697 2.0379443
1.1033607 0.22168264 2.0316343
1.1054958 0.22523686 2.0699751
1.0767871 0.22251864 2.0501785
1.0561302 0.22140969 2.0451446
1.0320163 0.2195328 2.0328097
1.0227076 0.2207963 2.0496771
1.0127846 0.22196344 2.0656152
1.0026956 0.22312948 2.081512
0.96874046 0.21893813 2.0469117
0.95574903 0.21942681 2.0562322
0.93980497 0.21924244 2.0591226
0.91375893 0.21665683 2.0391524
0.89958674 0.21684733 2.045377
0.88420111 0.21674684 2.0487573
0.87344384 0.21779695 2.0630336
0.86177754 0.21865326 2.0754166
0.83917087 0.21671475 2.0609734
0.81387532 0.21399887 2.0389154
0.79901409 0.21397682 2.042588
0.78945279 0.21540001 2.060107
0.76197165 0.2118946 2.0300214
0.75029236 0.21273224 2.0417354
0.73514545 0.21260053 2.0440106
0.71508354 0.21101308 2.032079
0.6987623 0.21048638 2.0303299
0.68817633 0.21170165 2.0454459
0.67463976 0.21204226 2.0519958
0.6559099 0.21072948 2.0423355
0.64030468 0.2103838 2.0420191
0.62184483 0.20906234 2.0320623
0.61401385 0.2113364 2.0572572
0.59482253 0.20971592 2.0441926
0.57638067 0.20828536 2.0328791
0.55338943 0.2050955 2.0041327
0.54928464 0.20892154 2.0444064
0.53441167 0.20874785 2.0452189
0.51785207 0.20788743 2.0391691
0.49737915 0.20536217 2.0165558
0.48828176 0.20752338 2.0402372
0.47240666 0.20684761 2.0357633
0.45423299 0.20509182 2.0204844
0.4421733 0.20607245 2.0322919
0.42834675 0.20626746 2.0362358
0.41271707 0.20557773 2.0313063
0.39926606 0.20596273 2.0370054
0.37823963 0.20232402 2.0025122
0.3644174 0.20240757 2.0050457
0.35227782 0.20346965 2.0172904
0.33835572 0.20354766 2.0196462
0.32504404 0.20401554 2.0258384
0.30851844 0.20241722 2.0112832
0.29606932 0.20346867 2.0231886
0.28183618 0.20333777 2.0231893
0.26437861 0.20074479 1.9984237
0.25034285 0.20060682 1.9982053
0.23678641 0.20085929 2.001843
0.22341029 0.20130566 2.0073676
0.20873985 0.20056759 2.0009258
0.197613 0.20337151 2.0300376
0.18431887 0.20420337 2.0392671
0.17008619 0.20404711 2.0384932
0.15459184 0.20221235 2.0207524
0.1409933 0.20273919 2.0267234
0.12608516 0.20129147 2.0127392
0.11252882 0.20191053 2.0195136
0.097922638 0.2005545 2.0063183
0.083915658 0.2001811 2.0029621
0.070200846 0.2004948 2.0064712
0.05591508 0.1989314 1.9909869
0.042137317 0.19874549 1.9893318
0.028525777 0.19954276 1.9975327
0.014913218 0.2018165 2.0205677
0.00096418255 0.19945094 1.9967386
-0.012714935 0.19796999 1.9817717
-0.026320552 0.19747226 1.9766631
-0.038399834 0.18977116 1.898833
-0.042615581 0.15701617 1.5682646
-0.05123933 0.15049605 1.5022961
-0.061910052 0.15117329 1.5088713
-0.072012432 0.15046753 1.5014552
-0.08201611 0.14975956 1.4939729
-0.092406988 0.149838 1.4943713
-0.10287465 0.1500126 1.4956913
-0.11306705 0.14979057 1.4929694
-0.12379514 0.15025599 1.497122
-0.13379358 0.14983228 1.4922773
-0.14420514 0.14989881 1.4923198
-0.15442038 0.14976607 1.4903109
-0.16537286 0.15032013 1.4951577
-0.17593858 0.1504779 1.4959712
-0.18579207 0.15004294 1.490785
-0.19635436 0.15019608 1.491456
-0.20612243 0.1497568 1.4861376
-0.21710566 0.15020022 1.4896212
-0.22740214 0.15014972 1.4881048
-0.23799922 0.15029345 1.4884841
-0.24812534 0.15014023 1.4858435
-0.25839567 0.15008304 1.484116
-0.2700597 0.15080854 1.490154
-0.2805419 0.15084468 1.4892547
-0.29083559 0.15078053 1.4873054
-0.30170348 0.15100819 1.4882132
-0.31340757 0.15162522 1.4929399
-0.32330886 0.15135832 1.48882
-0.33381626 0.15138304 1.4875499
-0.34387723 0.15120994 1.4842665
-0.35665843 0.15220793 1.4925379
-0.36462006 0.15115085 1.480399
-0.37800628 0.15233877 1.4904234
-0.38831174 0.15225442 1.4878073
-0.4016664 0.15333852 1.4966632
-0.41018173 0.152567 1.4871644
-0.42396048 0.15374276 1.4967854
-0.43486392 0.15384389 1.4957668
-0.44295701 0.15296967 1.4851242
-0.45496267 0.15345588 1.4877779
-0.46643746 0.15374497 1.4884359
-0.48065653 0.15490557 1.4975436
-0.49286923 0.15538312 1.4999009
-0.50419575 0.15556692 1.4993283
-0.51393557 0.15526369 1.4939599
-0.52690047 0.15592726 1.4979281
-0.55195999 0.16007175 1.5355459
-0.64321017 0.18287228 1.7534187
-0.72049654 0.20090108 1.9243846
-0.73274696 0.20045678 1.9166132
-0.77080119 0.20695722 1.9755946
-0.77605712 0.20457508 1.9489747
-0.80554491 0.20855163 1.9833066
-0.81321824 0.20684002 1.9630069
-0.83758366 0.20935982 1.9830871
-0.84936309 0.20870152 1.972717
-0.85428917 0.20640931 1.9467633
-0.88190937 0.20958558 1.9726981
-0.90255368 0.21102823 1.9820155
-0.91421795 0.21035877 1.9712466
-0.93465078 0.21169631 1.9793385
-0.9573862 0.21350615 1.991733
-0.97860277 0.21492751 2.0003242
-1.0048382 0.21739221 2.0185325
-1.0099175 0.21527466 1.99378
-1.0219595 0.21468122 1.9832335
-1.0430955 0.21598777 1.9902774
-1.0620555 0.21681328 1.9927219
-1.0759178 0.21658964 1.9853534
-1.086869 0.21579413 1.9726452
-1.1175275 0.21888006 1.9955562
-1.1240803 0.21722524 1.9747941
-1.1541921 0.22010672 1.995479
-1.1751192 0.22118457 1.9994999
-1.1743394 0.21820144 1.9664955
-1.1988353 0.21993078 1.9762449
-1.2084659 0.21892393 1.9611148
-1.2295035 0.21998288 1.9645519
-1.271893 0.2247896 2.0014744
-1.2676101 0.22133119 1.9641196
-1.285125 0.22171587 1.9611423
-1.3086962 0.22312401 1.9671552
-1.3246558 0.2232168 1.9613551
-1.3383607 0.22293185 1.9521345
1.4131166 0.21629179 2.0282133
1.3983245 0.2164858 2.0371282
1.386255 0.21711074 2.0500708
1.3603405 0.21555653 2.0421679
1.3286264 0.21303542 2.0248218
1.3079791 0.21224944 2.023905
1.2916685 0.21215665 2.0295365
1.2711378 0.21135983 2.0282712
1.2569343 0.21160832 2.0370119
1.2442182 0.21211667 2.0482106
1.2217516 0.21095446 2.0430534
1.2029388 0.21040118 2.0437033
1.1891459 0.21072288 2.0528247
1.1600833 0.20831126 2.0349753
1.1448967 0.20835982 2.0411909
1.1325561 0.20893472 2.0525343
1.107363 0.20712164 2.0401254
1.0945266 0.20760126 2.0503497
1.0788456 0.20754737 2.0551925
1.0636097 0.20757872 2.0608008
1.0474571 0.20742948 2.0645161
1.0282165 0.20665517 2.0618565
1.0029682 0.20463167 2.0464885
0.98958367 0.20500369 2.055135
0.96851307 0.20377024 2.0474629
0.95552534 0.20422524 2.0567834
0.93958443 0.20405351 2.0596693
0.92284501 0.20369992 2.0606115
0.90415072 0.20289586 2.0568559
0.88281274 0.20146129 2.046531
0.85935056 0.19948421 2.0305002
0.84829569 0.20036845 2.0437124
0.8262856 0.19865049 2.0300865
0.81807518 0.20024796 2.0505173
0.79557461 0.19834192 2.0347185
0.77864289 0.19777858 2.0326722
0.76456094 0.19793133 2.0379558
0.74805903 0.19745129 2.0365915
0.73864388 0.19886003 2.0547953
0.7221244 0.19837454 2.0532191
0.70952582 0.19896838 2.0628228
0.69462538 0.19892825 2.0657375
0.66953015 0.19590336 2.0372996
0.65906984 0.19712146 2.0532153
0.64250922 0.19652884 2.0500643
0.62573588 0.19584216 2.04583
0.61103243 0.19578604 2.0481477
0.59550017 0.19545516 2.0474894
0.57785046 0.19439545 2.0390463
0.5511387 0.19015488 1.9968404
0.54837495 0.19417119 2.041935
0.5370239 0.19528148 2.0562348
0.51893538 0.19393542 2.0444021
0.50292873 0.19331284 2.0401578
0.48930633 0.19359703 2.0454805
0.47250792 0.19260381 2.0371265
0.45844895 0.19270015 2.0403035
0.44226843 0.19188221 2.0336497
0.42742193 0.19160788 2.0327206
0.41280636 0.19142178 2.0326607
0.39935255 0.19178031 2.038362
0.3814393 0.18994468 2.0204844
0.36838368 0.19048001 2.0279393
0.35184473 0.18918501 2.015687
0.33679706 0.1886176 2.0111637
0.32370639 0.18914448 2.0183313
0.3094849 0.18902841 2.0185232
0.29298699 0.18744498 2.0028486
0.27944455 0.18768877 2.0067732
0.26430732 0.18683079 1.9987589
0.25027528 0.18670236 1.9985386
0.23730288 0.18739566 2.0071218
0.22509882 0.18881971 2.0235403
0.21001606 0.18785784 2.0141327
0.19602966 0.18780957 2.0145271
0.18302581 0.18876731 2.0257351
0.16815253 0.18779591 2.0160201
0.15394805 0.18746348 2.0131478
0.14013346 0.18758684 2.0151441
0.1261133 0.18743195 2.0140655
0.11255395 0.18800838 2.0208437
0.098185286 0.18720482 2.0126126
0.084306546 0.18722451 2.0132351
0.070320167 0.18696572 2.0107775
0.056509886 0.18716304 2.0132005
0.042565081 0.18689825 2.0105522
0.028757825 0.18727332 2.0147781
0.014741584 0.18571663 1.9979993
0.00095819822 0.18452427 1.9851078
-0.012781147 0.18525776 1.9930333
-0.026129195 0.18249816 1.9630288
-0.034336019 0.15796909 1.6969861
-0.040804449 0.13996029 1.501611
-0.051116455 0.13976669 1.4993066
-0.061721921 0.1403055 1.5048923
-0.071886912 0.13983199 1.4994625
-0.082466461 0.1401826 1.502914
-0.092731632 0.13998012 1.5003278
-0.10276237 0.13950019 1.4946926
-0.11324104 0.13966051 1.4959422
-0.1235791 0.1396351 1.4951345
-0.13399927 0.13969918 1.4952478
-0.1440476 0.13939425 1.4913248
-0.15435305 0.13936232 1.4903067
-0.1645429 0.13923657 1.4882288
-0.17505673 0.13938363 1.4890496
-0.18607682 0.13989492 1.49375
-0.19614038 0.13967104 1.4904704
-0.20684464 0.13990296 1.4920568
-0.21686913 0.13967495 1.4886395
-0.2268566 0.13944493 1.4851556
-0.23774013 0.13976176 1.4875072
-0.24801724 0.13971053 1.4858502
-0.25862101 0.13984004 1.4860859
-0.26959127 0.14015006 1.4882071
-0.28005549 0.14018376 1.4873115
-0.29089865 0.14039794 1.4882988
-0.30255198 0.14097483 1.4931135
-0.31246272 0.14072829 1.4890639
-0.32233262 0.14047994 1.4849494
-0.33280891 0.14050312 1.4836868
-0.34439594 0.1409796 1.4872046
-0.35673469 0.14172663 1.4935409
-0.36729109 0.14174305 1.4920384
-0.37760198 0.14166647 1.4894958
-0.39262673 0.14331464 1.505203
-0.39817357 0.14150754 1.484199
-0.41000631 0.14196984 1.4872096
-0.42055643 0.141976 1.4853332
-0.43220258 0.14234284 1.4872108
-0.44445923 0.14288841 1.4909093
-0.45649981 0.14334077 1.4935564
-0.46624008 0.14306664 1.4884994
-0.48135954 0.14441861 1.5004643
-0.4911243 0.14414015 1.4952441
-0.50367159 0.14467278 1.4984653
-0.51340044 0.14439054 1.4930998
-0.52471811 0.14455758 1.4923742
-0.54239422 0.14643452 1.509392
-0.56271213 0.148937 1.5327889
-0.71856487 0.18652526 1.9201106
-0.74737155 0.19033764 1.9561213
-0.75730091 0.18929015 1.9416673
-0.77694744 0.19066544 1.9521811
-0.78226376 0.18853778 1.9264859
-0.80808514 0.19134007 1.9514786
-0.8362149 0.19458276 1.9807991
-0.84992689 0.1944174 1.9750156
-0.86916733 0.19550106 1.9819221
-0.87361044 0.19327542 1.9549667
-0.89986658 0.19586961 1.9770607
-0.91232187 0.19542509 1.9681176
-0.93483979 0.19711627 1.9807433
-0.95029283 0.19728862 1.9778661
-0.96271181 0.1968354 1.9685955
-0.99489826 0.20037699 1.9994358
-1.014593 0.20133543 2.0041115
-1.0244323 0.20033875 1.9890958
-1.0456032 0.20155488 1.9961332
-1.0636665 0.20214617 1.9968065
-1.0728341 0.20105392 1.9806534
-1.0990295 0.20313893 1.9959353
-1.1061455 0.20168868 1.9761151
-1.139488 0.20499535 2.0031323
-1.1509562 0.20433152 1.9908983
-1.1683344 0.20472054 1.9889268
-1.1903136 0.20589542 1.9945217
-1.2083224 0.20636246 1.9930769
-1.2175424 0.2053356 1.9770265
-1.2413112 0.20675744 1.9846417
-1.2764024 0.21000741 2.0097179
-1.2667956 0.20591356 1.9639202
-1.2761608 0.20496428 1.9484236
-1.3259721 0.21045695 1.9944245
-1.3182768 0.20680058 1.9529148
-1.3403178 0.2078395 1.9560968
1.4405912 0.20413969 2.0690157
1.3985931 0.20046452 2.0385718
1.3809677 0.20023797 2.043241
1.36115 0.19968446 2.0444367
1.3305109 0.19751135 2.0287478
1.3292067 0.19969311 2.0580447
1.2887212 0.19596983 2.0258932
1.2919016 0.19887674 2.062691
1.2566516 0.19586632 2.0375705
1.2449675 0.19649929 2.0504761
1.2214735 0.19526054 2.0435996
1.2026627 0.19474807 2.0442419
1.1933426 0.19577913 2.0611391
1.1578481 0.19248635 2.032022
1.1504424 0.19383724 2.0521553
1.131333 0.19322622 2.0512993
1.1122957 0.19261074 2.0502756
1.0951984 0.19231853 2.0526083
1.0776669 0.19194072 2.0539174
1.0606295 0.19164121 2.0559678
1.0418283 0.19100954 2.0543184
1.0253156 0.19078489 2.0569727
1.0114362 0.1910508 2.0648735
0.99277639 0.19040807 2.0627868
0.97038865 0.18901908 2.0524206
0.95487076 0.18894544 2.0563247
0.93976128 0.18895157 2.0610189
0.91168851 0.18630874 2.0364583
0.90551639 0.18812795 2.0609376
0.89003694 0.18804239 2.0643535
0.87224352 0.18745655 2.06214
0.84693831 0.1852075 2.0413494
0.83278531 0.18536049 2.047107
0.81749696 0.18526176 2.0499854
0.79824859 0.18424532 2.0425305
0.7879951 0.18530583 2.0581963
0.76262128 0.1827831 2.0336571
0.76116687 0.18600675 2.0734723
0.73610747 0.18347561 2.0485969
0.72160637 0.18352661 2.0526443
0.69904149 0.18148616 2.033011
0.68498284 0.18161437 2.0377438
0.67027724 0.18157287 2.0404842
0.65708089 0.18194744 2.0478663
0.63582891 0.18005779 2.0294724
0.62614691 0.18143293 2.0480723
0.60210168 0.17861257 2.0188596
0.58981502 0.17922801 2.0286696
0.57526666 0.1791697 2.0307319
0.56335074 0.17994928 2.0423017
0.54822642 0.17971808 2.0422487
0.53837967 0.18125115 2.0623419
0.51027787 0.17655306 2.010891
0.4952167 0.17622772 2.0094872
0.4845717 0.17750092 2.0263934
0.47304893 0.17851986 2.0403347
0.4574565 0.17801866 2.0367072
0.44235691 0.17768317 2.0349107
0.42486244 0.17633139 2.0212994
0.41269246 0.17717247 2.0329418
0.3935394 0.17496876 2.0093007
0.37839806 0.17445175 2.0050828
0.36669099 0.17553911 2.0193846
0.35140601 0.17493211 2.0139847
0.33735532 0.17491466 2.0153518
0.31985813 0.17303124 1.9949731
0.3119452 0.17639677 2.0355263
0.29218826 0.17306648 1.9981636
0.27909264 0.17354645 2.0050449
0.2646206 0.17317601 2.0019622
0.25155491 0.17373583 2.0096533
0.23665527 0.17302042 2.0024154
0.22241278 0.17272633 2.0000215
0.20903414 0.17310862 2.005456
0.19539994 0.17331855 2.0088184
0.18252991 0.17429028 2.0210209
0.16802295 0.17373049 2.0152674
0.15473366 0.17444232 2.0243149
0.14009392 0.17362191 2.0153828
0.12669536 0.17432843 2.0242467
0.11246736 0.17392728 2.0200891
0.098398335 0.1736933 2.0178235
0.084158637 0.17303136 2.010483
0.069989324 0.17228149 2.0020483
0.056355234 0.17280434 2.0084543
0.042092759 0.17111331 1.9888684
0.028721487 0.17316157 2.0130196
0.014657146 0.17095459 1.9872631
0.00096364523 0.17180668 1.9972802
-0.012745781 0.17104001 1.9882725
-0.024003876 0.15521674 1.8028288
-0.030489538 0.12986669 1.505762
-0.040839713 0.12968947 1.5035264
-0.050992712 0.129085 1.4962417
-0.06157314 0.12958395 1.5018319
-0.071618587 0.12897547 1.4944097
-0.081997424 0.12904516 1.4948808
-0.092507586 0.12928273 1.4972695
-0.1029189 0.12934826 1.4975973
-0.11311564 0.12915677 1.4948725
-0.12327981 0.12896331 1.4920795
-0.13411497 0.12944742 1.4971582
-0.1442669 0.1292499 1.4942242
-0.15397859 0.12871085 1.4872575
-0.16436006 0.12876421 1.4871626
-0.17520779 0.12915498 1.4909549
-0.18513994 0.12886485 1.4867578
-0.19605191 0.12925138 1.4903998
-0.20634533 0.12921175 1.4890274
-0.21719772 0.12950921 1.4915295
-0.22764724 0.12955031 1.4909977
-0.2379441 0.12950471 1.4894096
-0.24822995 0.12945719 1.4877511
-0.25833532 0.12932311 1.4850407
-0.26876688 0.1293564 1.484224
-0.27956456 0.12955686 1.485294
-0.29057887 0.12983978 1.4872648
-0.30124179 0.12995152 1.4872011
-0.31191772 0.13006127 1.4870616
-0.32386163 0.13067552 1.492692
-0.33287531 0.130106 1.4846101
-0.34335193 0.13012551 1.4832747
-0.35451394 0.13039596 1.4847752
-0.36500594 0.13041154 1.4832884
-0.37743431 0.13109884 1.4894605
-0.38747483 0.13094197 1.485884
-0.40310875 0.13263375 1.5034287
-0.41008684 0.1314638 1.4881432
-0.42090765 0.13155343 1.4872264
-0.43366382 0.13222882 1.4929357
-0.44510967 0.13248199 1.4937609
-0.45601186 0.13256533 1.4925922
-0.46662551 0.13256288 1.4903926
-0.47723216 0.13255863 1.4881179
-0.48875538 0.13280359 1.4886113
-0.50282532 0.13371535 1.4965813
-0.51670855 0.13454045 1.5034848
-0.52743804 0.13452746 1.500856
-0.54216427 0.13551395 1.5094179
-0.64856988 0.15892704 1.769799
-0.71974212 0.172971 1.9241432
-0.74362993 0.17533539 1.9471257
-0.76175886 0.1762795 1.9540693
-0.78038776 0.17730276 1.9617817
-0.79320651 0.17699303 1.9545385
-0.80634528 0.17676428 1.9481329
-0.83714283 0.18034774 1.983923
-0.85165226 0.18036012 1.9799665
-0.86495876 0.1801216 1.9731619
-0.88144678 0.18054256 1.9735557
-0.89675564 0.18071231 1.9710896
-0.92414927 0.18327324 1.994764
-0.93628299 0.18277514 1.9847561
-0.94961375 0.18252245 1.9773729
-0.97072077 0.18374941 1.9860398
-0.98493993 0.18365537 1.9802085
-1.0018133 0.18405171 1.9796176
-1.0250777 0.18559368 1.9913117
-1.0425826 0.18606369 1.9912792
-1.048036 0.18439999 1.9681871
-1.079167 0.18723769 1.9934016
-1.1054462 0.18916731 2.0086555
-1.1116745 0.18765996 1.9870402
-1.1161928 0.18590805 1.9628294
-1.1452235 0.18823116 1.9818811
-1.1715648 0.19005762 1.9954554
-1.1915534 0.19081984 1.9976071
-1.2054688 0.1906025 1.9893256
-1.2359561 0.19297804 2.0081644
-1.2378684 0.19088845 1.9800898
-1.2628317 0.19236107 1.9891905
-1.2697222 0.19107844 1.9694906
-1.2796615 0.19027975 1.954805
-1.3026309 0.19141455 1.9600464
-1.3229649 0.19214019 1.9609202
-1.3366537 0.19189511 1.9517118
1.3665943 0.17813677 1.9628843
1.3848131 0.18258479 2.0192938
1.3884315 0.1851888 2.0553396
1.3460006 0.1816397 2.022464
1.3361831 0.18245968 2.0384192
1.3165278 0.18193984 2.0392196
1.2910755 0.18059646 2.0305679
1.2742325 0.18043904 2.0352132
1.2563504 0.18012871 2.0380199
1.2462136 0.18093506 2.0534883
1.2349099 0.18159048 2.0671961
1.2139302 0.18082163 2.0644801
1.1915628 0.17982313 2.0589776
1.1639373 0.17799395 2.0437145
1.1346471 0.17585735 2.0246811
1.112383 0.17476611 2.0175877
1.1091802 0.17668089 2.0454037
1.0925888 0.17648688 2.048593
1.0658824 0.17463014 2.0321901
1.0521811 0.17488119 2.0403695
1.0339414 0.17437416 2.0395472
1.022841 0.17507407 2.0528703
1.0024585 0.17418231 2.0473015
0.9873628 0.17419592 2.0523462
0.96886307 0.17359997 2.0500569
0.94669187 0.17231688 2.0394583
0.93869156 0.17361335 2.0595393
0.91751301 0.17247508 2.0504439
0.90686935 0.17331217 2.0649192
0.88666266 0.17231911 2.0573413
0.86930901 0.17185587 2.0560193
0.84518874 0.17001523 2.0379581
0.84599215 0.17321193 2.0806878
0.82460994 0.17189986 2.06882
0.7976678 0.16935878 2.041883
0.78530121 0.16987491 2.0519578
0.76727521 0.16916311 2.0470068
0.75038165 0.16867797 2.0447154
0.73523337 0.16857362 2.0469849
0.71943581 0.16831315 2.0472593
0.70367235 0.16804995 2.0474138
0.68415856 0.16686091 2.0360985
0.66576278 0.16589883 2.0274568
0.65719849 0.16739829 2.0490606
0.64393288 0.16774113 2.05636
0.63146859 0.1683135 2.0664361
0.61409026 0.1675721 2.0601852
0.59544778 0.16644126 2.0490041
0.57995641 0.16615677 2.0482235
0.56503195 0.16602428 2.0492513
0.54935247 0.16565715 2.0472803
0.53622794 0.16606148 2.0548439
0.5184027 0.16499209 2.0439537
0.5031206 0.1646942 2.0426016
0.48834273 0.16454877 2.0430775
0.46509016 0.16145258 2.006526
0.45710716 0.16362931 2.0359271
0.44222853 0.1633983 2.0351005
0.4284009 0.16355316 2.039046
0.40981653 0.16184022 2.0194421
0.39551407 0.16175643 2.0202334
0.38525653 0.16338184 2.0424836
0.36711296 0.1616593 2.0224969
0.35351226 0.1618796 2.0269186
0.33676529 0.16061765 2.0125635
0.32633853 0.1623913 2.0364742
0.30735835 0.15987654 2.0061271
0.29338831 0.15985282 2.00719
0.27982724 0.16006067 2.0111196
0.26544839 0.15979803 2.0090275
0.25147972 0.1597669 2.0098014
0.23658411 0.15910874 2.0025585
0.22387616 0.1599315 2.0140347
0.21030441 0.16020539 2.0184898
0.19658625 0.1603988 2.0218618
0.18211991 0.15996461 2.0171976
0.1683016 0.1600748 2.0193861
0.15333094 0.15900992 2.0065696
0.14053226 0.16020961 2.0224874
0.12554577 0.15890472 2.0064831
0.11237898 0.15986507 2.0192378
0.098272704 0.15957157 2.0159738
0.083802529 0.15849316 2.0026519
0.070521049 0.15968086 2.0181215
0.056421541 0.15914488 2.0115793
0.042519342 0.15899752 2.0099239
0.028374275 0.15736084 1.9892331
0.014659965 0.15728655 1.9883827
0.00094760774 0.15540993 1.96451
-0.012247431 0.15118323 1.9106367
-0.020838056 0.12394861 1.5636055
-0.030455461 0.11932719 1.5046194
-0.040793993 0.11916415 1.502383
-0.051170502 0.11915565 1.502069
-0.061584961 0.11922351 1.5026807
-0.071632326 0.11866366 1.4952544
-0.081959121 0.11864954 1.4947304
-0.092768654 0.11925916 1.5020968
-0.10287097 0.1189284 1.4974498
-0.11321172 0.11890858 1.4967127
-0.12354706 0.11888687 1.495905
-0.13405254 0.11901961 1.4970131
-0.1443892 0.11899415 1.4960631
-0.15482061 0.11904493 1.4960346
-0.16439132 0.1184691 1.4880059
-0.1750108 0.11867242 1.4898201
-0.18554074 0.11879576 1.4905699
-0.1958317 0.11876114 1.4892691
-0.20719689 0.11934876 1.4957999
-0.21709651 0.11907638 1.4913908
-0.22754121 0.11911415 1.4908605
-0.23767754 0.11899427 1.4882883
-0.24892603 0.11941795 1.4925338
-0.25956735 0.11952803 1.4927652
-0.26987198 0.11948057 1.4909593
-0.2807118 0.11966477 1.4920233
-0.29101136 0.11961372 1.490073
-0.30227721 0.11994964 1.4929399
-0.31217813 0.11973957 1.4888899
-0.3228752 0.11983861 1.488674
-0.33509585 0.12047921 1.4951957
-0.34475049 0.12018635 1.4899582
-0.3561835 0.12051246 1.4924216
-0.36695948 0.12060394 1.4918926
-0.37677589 0.12038376 1.4874185
-0.38704735 0.12031695 1.4848114
-0.3973017 0.12024848 1.4821336
-0.41042346 0.12102909 1.4899668
-0.420715 0.12095691 1.4871289
-0.43374214 0.12165552 1.4938027
-0.44378018 0.12150246 1.4898483
-0.45551684 0.12181073 1.4915529
-0.4675943 0.12219403 1.4941196
-0.47822216 0.12218988 1.4918388
-0.49161494 0.122877 1.4980173
-0.50260043 0.12294597 1.496513
-0.51712132 0.12385884 1.5053122
-0.53178859 0.12476873 1.5139821
-0.57097596 0.1312799 1.5911028
-0.68748283 0.15496378 1.8776802
-0.7292316 0.16120894 1.9505203
-0.74976456 0.16261666 1.9641298
-0.76548827 0.1629484 1.9645284
-0.77869487 0.16274203 1.9583104
-0.79483455 0.16314507 1.959403
-0.82201016 0.16575934 1.9871145
-0.83651894 0.16577318 1.9832706
-0.84867042 0.1653273 1.9738173
-0.86192876 0.16510837 1.9670334
-0.8795808 0.16572443 1.9701872
-0.89240015 0.16542478 1.9622836
-0.92222786 0.1682374 1.9914426
-0.93179679 0.1673241 1.976027
-0.95149344 0.16822961 1.9821784
-0.96610415 0.16822203 1.9773835
-0.97893411 0.16790926 1.9689022
-1.0113802 0.17092077 1.9995483
-1.0248016 0.17067644 1.9916507
-1.0367886 0.17020357 1.9810057
-1.0528741 0.17040741 1.9782245
-1.078882 0.17218919 1.9937621
-1.0908257 0.17170824 1.9827753
-1.1104155 0.17242761 1.9856673
-1.1330416 0.17359297 1.9935924
-1.1379843 0.17205404 1.9701512
-1.1627355 0.17351107 1.9812044
-1.1882063 0.1750367 1.992865
-1.1974595 0.17416494 1.9769149
-1.2029161 0.1727697 1.9549726
-1.2055035 0.1710019 1.9288106
-1.2572076 0.17615947 1.9811852
-1.2694076 0.17572413 1.9699194
-1.2858597 0.17588079 1.9652702
-1.2962748 0.17521769 1.9513265
-1.3165438 0.1758865 1.9522513
-1.3408126 0.17706813 1.9587623
1.3826902 0.164535 1.9870528
1.3811097 0.16623446 2.014729
1.3636606 0.16604121 2.0192707
1.3473176 0.16597968 2.0253322
1.3309592 0.16591477 2.0312629
1.3059772 0.16476038 2.0236208
1.2912828 0.16489153 2.0317626
1.2723309 0.16447553 2.0330164
1.2544693 0.16419186 2.0358064
1.2397224 0.16431384 2.0435731
1.2310371 0.16525264 2.0615301
1.2055769 0.16393475 2.0510254
1.1778427 0.16226891 2.0359402
1.1729563 0.16374832 2.060524
1.1357969 0.16070142 2.0275855
1.1192616 0.16052915 2.0309939
1.1060475 0.16083506 2.0404191
1.0871629 0.16031335 2.0391746
1.0743405 0.16068345 2.0492702
1.0541655 0.15994871 2.0450737
1.0372431 0.15969312 2.0469339
1.0269821 0.16047078 2.0620711
1.0074128 0.15979549 2.0583181
0.99009794 0.15946259 2.0588934
0.97579318 0.15961161 2.0656495
0.94350392 0.15677698 2.0333414
0.931853 0.15733564 2.0452273
0.91604018 0.15719835 2.0479293
0.90422446 0.15775387 2.059655
0.88013661 0.15615091 2.0428791
0.85902858 0.15503052 2.0323088
0.85063821 0.15620625 2.0519884
0.83455753 0.15598655 2.0531449
0.81923926 0.15590394 2.0560319
0.80356437 0.15574916 2.0578747
0.78259504 0.15454303 2.04561
0.7649653 0.15396272 2.0415697
0.74913806 0.15372957 2.0420704
0.73736185 0.15433502 2.0537262
0.71791071 0.153326 2.0436513
0.70700651 0.15413837 2.0579548
0.68710953 0.15298302 2.0457067
0.68193918 0.15512753 2.0778615
0.65851623 0.15312296 2.053957
0.63841522 0.15181741 2.0393572
0.62925714 0.15311395 2.0598993
0.60909939 0.15173197 2.0440624
0.58780843 0.14999352 2.0232546
0.57681519 0.15086161 2.0377851
0.56407303 0.15130502 2.0464869
0.54944402 0.1512523 2.0483625
0.53131694 0.15020779 2.0366151
0.51678556 0.15015011 2.0382593
0.49610099 0.14825037 2.0146077
0.48681369 0.14974491 2.0373576
0.47075692 0.14918458 2.0318832
0.45718443 0.14940113 2.0369954
0.43978086 0.14833939 2.024466
0.42867723 0.14940268 2.04109
0.41106752 0.14819363 2.0263655
0.39976561 0.14925346 2.0428309
0.38550588 0.1492465 2.0445304
0.36629203 0.14724748 2.0186434
0.35306272 0.1475907 2.0250263
0.33894676 0.14757636 2.0264034
0.32467198 0.14748865 2.0266979
0.30846065 0.14647341 2.0140734
0.29300964 0.14574002 2.0052719
0.27973935 0.14607219 2.0111759
0.26510558 0.14568995 2.0071032
0.25115484 0.1456615 2.0078747
0.23685753 0.14541698 2.0055783
0.22369653 0.14588304 2.0130954
0.20993093 0.14599049 2.0155666
0.19662063 0.14645238 2.0229082
0.18224078 0.14612731 2.0192349
0.16792014 0.14579982 2.0154605
0.1545642 0.14632642 2.0235209
0.14041974 0.14613698 2.0215425
0.125815 0.14537396 2.0115023
0.11272869 0.1463937 2.0262566
0.098049089 0.14534014 2.0120337
0.083817296 0.14471261 2.003686
0.070498914 0.14572564 2.0181665
0.056237288 0.14480762 2.0056386
0.042380344 0.14467305 2.0039809
0.028661521 0.14510772 2.0102069
0.014684438 0.14382532 1.9924017
0.00093632139 0.14018275 1.9415854
-0.010765946 0.12131938 1.6782261
-0.020025957 0.10874197 1.5025781
-0.030480806 0.1090235 1.5063951
-0.040720817 0.10858884 1.5001692
-0.051112313 0.10865256 1.5008531
-0.061353307 0.10842878 1.4974788
-0.07173939 0.10848901 1.4980214
-0.082297765 0.10876176 1.5014805
-0.092237376 0.10824724 1.4939147
-0.1023479 0.10801673 1.4902648
-0.11352937 0.10885526 1.5014673
-0.12348747 0.10847853 1.4956867
-0.13310765 0.10788618 1.4868605
-0.14365588 0.10807709 1.4888961
-0.1541364 0.1081949 1.4898655
-0.16507031 0.10859618 1.4947283
-0.17515643 0.10842527 1.4915853
-0.18545109 0.10839532 1.4903554
-0.19638048 0.10871992 1.4940008
-0.20601378 0.1083304 1.4876846
-0.21628089 0.10829549 1.4862442
-0.22758052 0.10875715 1.4916376
-0.23802988 0.10878996 1.4910355
-0.24815688 0.10867883 1.4883921
-0.25944284 0.10906384 1.4925624
-0.26921487 0.10880727 1.4878116
-0.28039473 0.10911761 1.4908431
-0.29125032 0.10928407 1.4918331
-0.30154499 0.10923582 1.4898107
-0.31162331 0.10911503 1.4867414
-0.32272068 0.10934734 1.488481
-0.33277711 0.10922345 1.48527
-0.34414089 0.10952315 1.4878258
-0.3553265 0.10975015 1.4893253
-0.36466241 0.1094092 1.4829881
-0.37586907 0.10963287 1.4843343
-0.39035046 0.11077373 1.4981537
-0.39864656 0.11014545 1.4877399
-0.41232786 0.11099917 1.4974942
-0.42078489 0.11043893 1.4879191
-0.43408942 0.11114729 1.4955564
-0.44272554 0.11065502 1.4868149
-0.45501488 0.1110775 1.4904393
-0.466786 0.11135713 1.4920596
-0.47679275 0.11121276 1.4878833
-0.48984692 0.11177002 1.4931282
-0.50048053 0.11176299 1.4906906
-0.51335311 0.11224581 1.4947888
-0.53187507 0.1139189 1.5147985
-0.67492968 0.14166364 1.8842951
-0.71482569 0.1470916 1.9537083
-0.73212385 0.14775005 1.959058
-0.75023872 0.14854532 1.9661275
-0.76129627 0.14793967 1.9544302
-0.79345959 0.15138283 1.996497
-0.79421747 0.14881818 1.9586215
-0.80926621 0.14897442 1.9568228
-0.82125187 0.14857106 1.9475467
-0.8519367 0.15150687 1.9822432
-0.86723554 0.15165411 1.9800109
-0.88901103 0.15291052 1.9922551
-0.90115595 0.15249664 1.9824666
-0.9127968 0.15201198 1.9716977
-0.93067688 0.15256526 1.9744159
-0.95078689 0.15346141 1.9814833
-0.96451712 0.15331629 1.9748988
-0.97732443 0.15303098 1.9664282
-0.99498725 0.15350315 1.9676814
-1.0267781 0.15610966 1.9963285
-1.0401706 0.15588433 1.988325
-1.0535069 0.15565704 1.9802299
-1.0606524 0.15453412 1.9606161
-1.0828749 0.15560855 1.9690204
-1.1013975 0.15612942 1.9702291
-1.1195036 0.15657812 1.9704045
-1.1446124 0.1579816 1.9825408
-1.172457 0.15972121 1.9987327
-1.1919507 0.16029316 2.0000329
-1.2053574 0.16004243 1.990894
-1.195313 0.15672319 1.9433405
-1.2393341 0.16048717 1.9842147
-1.2579409 0.16090839 1.9831951
-1.2706863 0.16057876 1.9727638
-1.28661 0.16065384 1.9672714
-1.3008753 0.16052252 1.9591521
-1.3017813 0.15876493 1.9310246
-1.3331847 0.16072451 1.9483789
1.3987703 0.150566 2.0111392
1.394223 0.15180013 2.0348089
1.3721944 0.15113753 2.032804
1.3464155 0.15004143 2.0247602
1.333874 0.15041192 2.0365407
1.3185463 0.15047337 2.0440402
1.2850831 0.14844146 2.0227177
1.2725161 0.14880297 2.0340998
1.2520486 0.14823811 2.0326297
1.2404171 0.14871831 2.0455098
1.221549 0.14833213 2.0463026
1.182119 0.14540668 2.0115809
1.1884469 0.14810674 2.0551851
1.1490742 0.1451076 2.019017
1.1408092 0.14600883 2.0373654
1.1232533 0.14572938 2.0390539
1.1109344 0.14613099 2.0502648
1.0915196 0.14559741 2.0481665
1.0735739 0.14524738 2.0485532
1.0552263 0.14483202 2.0478995
1.0311162 0.14360195 2.035497
1.0218242 0.14442967 2.0523853
1.0036342 0.14400569 2.0512848
0.97605777 0.14220117 2.0302126
0.96746266 0.14314888 2.0486207
0.95657843 0.14378256 2.0624712
0.92993236 0.14202935 2.0417092
0.92143595 0.14303611 2.060816
0.90156555 0.14228143 2.0542812
0.87555712 0.14051607 2.0328867
0.86262721 0.140825 2.0416045
0.85303992 0.14170003 2.0585461
0.83467931 0.14112292 2.054163
0.82192743 0.14149037 2.0635457
0.80332142 0.140845 2.05796
0.787314 0.14063951 2.0587473
0.76855528 0.13992523 2.0519278
0.75027239 0.13927129 2.0458858
0.73345155 0.13886806 2.0434501
0.7232722 0.13973147 2.0597279
0.70872134 0.13976867 2.0636816
0.68815815 0.13859659 2.0495434
0.67091537 0.13805687 2.0447102
0.6592195 0.13865992 2.0568559
0.63851064 0.13735157 2.040345
0.62414062 0.13737765 2.0437047
0.60834193 0.13708304 2.0421782
0.59425408 0.13716897 2.0462856
0.58283859 0.13789149 2.0599039
0.56784397 0.13778251 2.0609474
0.55132407 0.137288 2.0560966
0.52414566 0.13404107 2.0095742
0.518812 0.13635541 2.046978
0.50186086 0.13566133 2.0388377
0.48896009 0.13605352 2.04707
0.47395909 0.13586739 2.0464687
0.45443484 0.13433252 2.0253029
0.44426396 0.13555275 2.0459161
0.42976138 0.13548851 2.0469456
0.41054046 0.13388115 2.0243936
0.39507237 0.1334267 2.0193098
0.38171199 0.1336768 2.0249004
0.36758673 0.13366796 2.0264752
0.35175714 0.13301392 2.0181189
0.33916318 0.13357991 2.028347
0.32362637 0.13298567 2.0207572
0.30775955 0.13219582 2.010092
0.29448742 0.13249841 2.0160947
0.27964705 0.13209043 2.0111365
0.26670331 0.13258249 2.0199232
0.25217772 0.13229915 2.0167434
0.2371273 0.13169113 2.0085051
0.22373204 0.13198386 2.0140433
0.20965657 0.13188751 2.0135372
0.19636454 0.13230537 2.0208797
0.1818248 0.13188216 2.0152147
0.1679469 0.13190866 2.0164077
0.15353315 0.13148102 2.0105407
0.14030495 0.13208458 2.0205009
0.12527889 0.13094205 2.0034828
0.11219674 0.13179994 2.0172439
0.097775668 0.13110521 2.0069981
0.084161758 0.13144214 2.012603
0.069818951 0.1305491 1.9991673
0.056357302 0.13126966 2.0105696
0.042408075 0.13095401 2.0059185
0.028355606 0.12986057 1.9891981
0.014482507 0.12831247 1.9653955
0.00086201215 0.1167428 1.7868226
-0.0096642738 0.098513171 1.5053818
-0.020029172 0.098381616 1.5032849
-0.030385809 0.098313123 1.502115
-0.040754139 0.098307714 1.5018724
-0.051120508 0.09830071 1.501559
-0.061484408 0.098292127 1.5011747
-0.071845353 0.09828198 1.5007199
-0.082148798 0.098205641 1.4991978
-0.092738941 0.098450765 1.5025862
-0.10290549 0.098242119 1.4989315
-0.11317521 0.098161131 1.4971988
-0.12301965 0.097755797 1.490424
-0.13374519 0.098059148 1.4945197
-0.14396325 0.097973578 1.4925785
-0.15416092 0.097886525 1.4905685
-0.16466288 0.097991496 1.4914658
-0.17552972 0.098288372 1.4952636
-0.18548043 0.098067753 1.4910595
-0.19679764 0.098554783 1.4976759
-0.20685908 0.098395608 1.4943206
-0.21645717 0.098041773 1.4879357
-0.22776525 0.09845943 1.4933311
-0.23775582 0.098295942 1.4897709
-0.24933271 0.098774537 1.4959905
-0.25982168 0.098801047 1.4952379
-0.27013624 0.098761752 1.4934303
-0.2800732 0.098592453 1.4895897
-0.29186332 0.099064283 1.4954824
-0.30198359 0.098956287 1.4924774
-0.31248209 0.098975308 1.4913589
-0.32423568 0.099377796 1.4960217
-0.33563608 0.099650197 1.4986455
-0.34597483 0.099600419 1.49632
-0.35652736 0.099613316 1.4948949
-0.36636952 0.099432692 1.4904869
-0.3768965 0.099442802 1.488919
-0.39040986 0.10021897 1.4988739
-0.39896277 0.099714428 1.4894207
-0.41134095 0.10016729 1.4943645
-0.42138621 0.10004363 1.4905593
-0.4327774 0.10023774 1.4914832
-0.44194594 0.099920079 1.4846628
-0.45450592 0.10036612 1.4892515
-0.46685585 0.10074652 1.4927844
-0.47716558 0.10067952 1.4895588
-0.48961169 0.1010564 1.4929066
-0.50244254 0.10149493 1.4971009
-0.52113539 0.10307458 1.5181977
-0.60106838 0.11645474 1.7144496
-0.68605155 0.13025779 1.9162527
-0.71356928 0.13282228 1.9509146
-0.72806919 0.13291156 1.9487921
-0.75140852 0.13458069 1.9698963
-0.77111864 0.1355499 1.9805305
-0.778934 0.13443105 1.9603467
-0.79694015 0.13507946 1.966074
-0.82188284 0.13686021 1.9882659
-0.83600438 0.13680863 1.983505
-0.84932077 0.13662928 1.9768065
-0.85980517 0.13600793 1.9636099
-0.86894125 0.13519721 1.9476241
-0.90087616 0.13790262 1.9825542
-0.90584868 0.13646032 1.9572737
-0.91982096 0.1363977 1.951908
-0.95178193 0.13896343 1.9842901
-0.9672671 0.13908228 1.9812922
-0.98099583 0.1389488 1.9745923
-1.0125813 0.14131127 2.0034807
-1.0255654 0.14104691 1.9946851
-1.0375623 0.14065628 1.9840323
-1.0615773 0.14188294 1.9962569
-1.0683553 0.14080374 1.9757019
-1.0945017 0.14227177 1.9910706
-1.0947807 0.14038312 1.9590346
-1.1348555 0.14357977 1.9983884
-1.1408099 0.14243227 1.9766506
-1.1550572 0.14233649 1.9695897
-1.1697741 0.14230029 1.9632833
-1.2009075 0.14423676 1.9842465
-1.2012042 0.14246739 1.9537451
-1.2426685 0.14556408 1.990362
-1.254935 0.14520673 1.9791863
-1.2719468 0.14540045 1.9755042
-1.2808233 0.14467067 1.9591191
-1.3230251 0.14767787 1.993554
-1.3230528 0.14596234 1.9636027
-1.3333812 0.14540963 1.9494388
1.3677678 0.13169837 1.9669245
1.3691468 0.13334523 1.9986447
1.3768212 0.13565059 2.0404327
1.3526418 0.13483493 2.0349123
1.3422109 0.1353866 2.0500855
1.3165668 0.13439859 2.0416627
1.2793949 0.13219535 2.0143986
1.2726828 0.13312389 2.0350745
1.2548156 0.1328942 2.0378602
1.2395493 0.13293768 2.0447719
1.2242523 0.1329789 2.0515685
1.2043997 0.13251998 2.0504858
1.1811476 0.13166998 2.0431631
1.1722963 0.1324241 2.0608296
1.1511401 0.13178982 2.0566483
1.1233991 0.13037401 2.0400059
1.1058776 0.13012137 2.0415454
1.0907277 0.13014457 2.0473518
1.0737132 0.1299428 2.0495007
1.0530907 0.12929219 2.0443993
1.0397691 0.12953202 2.0533831
1.0215147 0.12915532 2.0524313
1.0007123 0.12844019 2.0459354
0.98521143 0.12839398 2.0500631
0.97097743 0.12851399 2.0567851
0.93791944 0.12610686 2.0225923
0.92635292 0.12655833 2.0344443
0.90819436 0.12610923 2.0316293
0.90367639 0.12757081 2.059783
0.89214927 0.12807566 2.0723603
0.86891633 0.12688847 2.0572519
0.84707683 0.12586673 2.0446923
0.83628225 0.12647897 2.0587831
0.82056773 0.12635586 2.0607502
0.79513341 0.12470378 2.0374608
0.78387576 0.12525474 2.0503249
0.76378757 0.12438872 2.0397329
0.74251992 0.12329295 2.0252097
0.73455387 0.12440622 2.0471718
0.7207405 0.12455434 2.0530913
0.7014088 0.12373515 2.0428517
0.68351668 0.12314051 2.0362329
0.67131436 0.12356736 2.0465536
0.66021574 0.1242208 2.0606079
0.63948476 0.12305044 2.0440946
0.62393534 0.12284592 2.0436382
0.61012226 0.12298166 2.04881
0.59267598 0.12237386 2.0414171
0.5696941 0.12056422 2.0136969
0.56133908 0.12183663 2.0377631
0.54061782 0.12042135 2.016463
0.5282191 0.12083355 2.0259056
0.51498729 0.12107275 2.0323682
0.50027192 0.12096684 2.0329261
0.48718563 0.12126022 2.0401783
0.47424823 0.1216095 2.0483203
0.45623335 0.12063799 2.0339673
0.43654522 0.11914724 2.0106821
0.43002483 0.12127076 2.0487988
0.41020387 0.11966048 2.0233014
0.39645928 0.11977114 2.0270326
0.38470215 0.12051256 2.0414658
0.36569315 0.11895202 2.0165308
0.34891459 0.11802142 2.002255
0.33430913 0.11777908 1.9996637
0.32476875 0.11937756 2.0285189
0.31050184 0.11930478 2.0287127
0.29524505 0.11882674 2.0218911
0.27736738 0.11719364 1.9951774
0.26570383 0.11815257 2.012861
0.25184491 0.11818737 2.0146263
0.23762572 0.11804727 2.0133226
0.22234225 0.11732813 2.001996
0.20927621 0.11776131 2.0104175
0.19610529 0.11819285 2.0187538
0.18193989 0.11804522 2.0170612
0.16813546 0.11812671 2.0192504
0.15363066 0.11768641 2.0123863
0.13826661 0.11643507 1.9914757
0.12579145 0.11760882 2.0123007
0.11166285 0.117336 2.0081275
0.09793435 0.11746586 2.0108364
0.084132522 0.11753611 2.0124552
0.070243858 0.1174888 2.0119843
0.056337692 0.1173818 2.0104203
0.042351402 0.11698376 2.0037708
0.028359707 0.116179 1.9900373
0.013944621 0.11051452 1.8923509
0.00074518024 0.090274595 1.5429872
-0.0096783563 0.088249892 1.5080154
-0.020032069 0.08801654 1.5039208
-0.030330263 0.087781787 1.4997562
-0.040733229 0.087892577 1.5015098
-0.051127892 0.087944135 1.5021943
-0.061493289 0.087936454 1.5018101
-0.071855724 0.087927371 1.5013552
-0.082214698 0.087916873 1.5008297
-0.09250886 0.087847181 1.4992368
-0.10271732 0.08771833 1.4965786
-0.11289362 0.087588117 1.4938512
-0.12368745 0.087918676 1.499016
-0.13332409 0.087439172 1.4901813
-0.14379416 0.087535888 1.4912241
-0.15387805 0.087400287 1.4882218
-0.16479485 0.087725095 1.4930916
-0.17509401 0.087702163 1.491932
-0.1857508 0.087850928 1.493675
-0.19540961 0.087536924 1.4874227
-0.20607555 0.087682948 1.489022
-0.21648785 0.087712266 1.4885693
-0.22645666 0.087567396 1.4850832
-0.23732223 0.087766819 1.4874476
-0.24806826 0.087907203 1.4887487
-0.25968906 0.08833389 1.4948926
-0.27017415 0.088356242 1.4940685
-0.28066027 0.088377267 1.4931716
-0.29114696 0.088396959 1.4922018
-0.30124176 0.088300414 1.4892013
-0.31232291 0.088489778 1.4910213
-0.322606 0.088448092 1.4888551
-0.33330646 0.088519879 1.4885681
-0.34312797 0.08836095 1.4843122
-0.35428336 0.088544771 1.4858221
-0.36571211 0.088784419 1.4882197
-0.37670568 0.088908017 1.4885937
-0.38797152 0.089087442 1.4898543
-0.39850575 0.089093857 1.4881357
-0.4106099 0.089441895 1.4921228
-0.42117453 0.089445561 1.4902451
-0.431734 0.089447968 1.4882932
-0.44482648 0.08996255 1.4948864
-0.45399007 0.089677073 1.4879894
-0.46868956 0.09047322 1.499159
-0.47843629 0.090299152 1.4940172
-0.48998556 0.090465464 1.4945107
-0.5006218 0.090459719 1.4920734
-0.5346927 0.094600372 1.5585693
-0.66273749 0.11485828 1.8925087
-0.70017278 0.11891583 1.956612
-0.71434474 0.11894062 1.9536525
-0.72955316 0.1191337 1.9533988
-0.74585474 0.11949462 1.9558287
-0.76654404 0.12053208 1.9693023
-0.78123289 0.12060545 1.9667919
-0.79778975 0.12095939 1.9688036
-0.82729387 0.12322947 2.0020874
-0.82610047 0.12092756 1.9604439
-0.85569489 0.12313414 1.99239
-0.86111075 0.12184585 1.9672415
-0.87673104 0.12202005 1.9658506
-0.89607012 0.12269785 1.9725286
-0.91513032 0.1233165 1.9781239
-0.93135524 0.12353973 1.9772173
-0.94632894 0.12359267 1.9734747
-0.96478158 0.12409147 1.9768065
-0.97891641 0.12402829 1.9710199
-1.0024201 0.12513652 1.9838735
-1.0234302 0.12590586 1.9911579
-1.0436738 0.12656023 1.9964715
-1.0523976 0.12581892 1.979521
-1.068494 0.12596737 1.9766213
-1.0903417 0.12678048 1.9841106
-1.0963749 0.12575763 1.9625716
-1.1281419 0.12767445 1.9871479
-1.1196274 0.12504205 1.9403219
-1.1572157 0.12756003 1.973973
-1.1871985 0.12918578 1.9934403
-1.1892438 0.1277688 1.9655017
-1.2273533 0.13021342 1.9973017
-1.2239047 0.12824313 1.9607565
-1.2593523 0.13034678 1.9868993
-1.2694266 0.12980515 1.9722495
-1.2924004 0.13057975 1.9776608
-1.3001398 0.129815 1.9594945
-1.3176795 0.13003524 1.9562582
-1.3789629 0.13451755 2.017324
1.3826749 0.117434 1.9891604
1.3928881 0.11966012 2.0342112
1.3519771 0.11749498 2.0039666
1.3467515 0.11841666 2.0266187
1.3358383 0.11885422 2.040916
1.3199502 0.11885437 2.0475855
1.304038 0.11885229 2.0541313
1.2870495 0.11875088 2.058856
1.2690209 0.11854977 2.0617375
1.2237337 0.11576492 2.0191035
1.2137074 0.11628713 2.0343847
1.2020243 0.11666208 2.0470324
1.1807872 0.11610743 2.0431521
1.1631033 0.11589205 2.0451632
1.1357546 0.11469484 2.0295622
1.1082035 0.11344417 2.012804
1.1121522 0.11542808 2.0538263
1.0959878 0.11535095 2.0579085
1.0770618 0.11497682 2.0565467
1.0559393 0.11435398 2.0505731
1.0376468 0.1140238 2.0497594
1.0234016 0.11413518 2.0568495
1.0069329 0.1139982 2.059346
0.97715706 0.11232731 2.0337646
0.97278446 0.11357001 2.061234
0.94637716 0.11223884 2.0415547
0.93221712 0.1123407 2.0480049
0.9196381 0.11263952 2.0580075
0.90059185 0.11214299 2.0532808
0.88440555 0.11199182 2.0548177
0.84315139 0.10860643 1.9963542
0.84869444 0.11123598 2.0491991
0.8352598 0.1114276 2.0568197
0.81846142 0.11116931 2.0559912
0.7963084 0.1101607 2.0410585
0.785739 0.11074675 2.0558009
0.77013868 0.11063261 2.0573862
0.75353301 0.11036674 2.0560381
0.73531061 0.10984873 2.0498545
0.72082573 0.10987932 2.0538929
0.70503485 0.10970799 2.0540471
0.68675393 0.10913366 2.0465007
0.67355812 0.10936004 2.0539963
0.65121621 0.10807853 2.0328531
0.63867295 0.10840199 2.0420241
0.62227279 0.10807064 2.0386932
0.61104465 0.10864311 2.0524738
0.59164149 0.10775457 2.0383644
0.58271831 0.10877801 2.060627
0.56667358 0.10849041 2.0578139
0.54504794 0.10709116 2.0336447
0.51777774 0.10447745 1.9860722
0.50969267 0.10569733 2.0118372
0.4963057 0.10585596 2.0172093
0.4821794 0.10586157 2.019577
0.4713994 0.1066244 2.0364475
0.45216712 0.10546341 2.0162196
0.43933314 0.10576805 2.0241394
0.42457989 0.10561553 2.0231786
0.40769437 0.10490386 2.0113413
0.39745983 0.10591381 2.0327039
0.38658568 0.10682166 2.0520566
0.36945283 0.10600338 2.0379362
0.35219091 0.10508134 2.0217109
0.33810964 0.10507108 2.0230806
0.32386944 0.10500843 2.0233669
0.30949125 0.10489332 2.0225668
0.29413667 0.10442066 2.0147469
0.27999493 0.10435292 2.0147274
0.26703435 0.10474136 2.0235219
0.25199974 0.10431428 2.0163763
0.23533273 0.10312182 1.9942418
0.22412057 0.10432002 2.0186327
0.21053402 0.10449869 2.0230944
0.19584283 0.10411549 2.0165305
