# .PCD v0.7 - Point Cloud Data file format
VERSION 0.7
FIELDS x y z
SIZE 4 4 4
TYPE F F F
COUNT 1 1 1
WIDTH 1492
HEIGHT 1
VIEWPOINT 0 0 0 1 0 0 0
POINTS 1492
DATA ascii
0.72436225 0.47946379 2.0286782
0.70978349 0.47958747 2.0326729
0.69581401 0.48013687 2.038414
0.6771996 0.47743532 2.0301573
0.66444439 0.47883639 2.0393929
0.64013368 0.47178453 2.0122421
0.62600875 0.47208652 2.0165772
0.61298072 0.47324973 2.0245543
0.5976792 0.47267157 2.0249543
0.58374351 0.47317177 2.0299346
0.56794012 0.47214478 2.0282371
0.55524856 0.47371888 2.0377269
0.53922707 0.47246015 2.0348682
0.51529807 0.46401119 2.0006819
0.50198257 0.46491006 2.006999
0.49409056 0.47103205 2.0360014
0.47361445 0.46516478 2.0127192
0.46619183 0.47215191 2.0454159
0.43579772 0.45557487 1.9751467
0.42883587 0.46320558 2.0105379
0.41788623 0.46690559 2.028717
0.40047473 0.46339229 2.0152476
0.38691473 0.46424058 2.0208106
0.36926109 0.46005377 2.0042071
0.35455886 0.4593567 2.0028367
0.33746171 0.45537007 1.9869283
0.32588956 0.45881641 2.0036345
0.3105312 0.45700294 1.9971329
0.29385829 0.45299095 1.980864
0.2804054 0.45379019 1.9857215
0.26316774 0.44822696 1.9624424
0.25029215 0.4498888 1.970968
0.23143315 0.44036028 1.9300009
0.21402344 0.43257517 1.8966297
0.18039277 0.38879615 1.7039837
0.14944652 0.34499103 1.5109782
0.13867715 0.34462389 1.5100189
0.12817313 0.34491006 1.5119015
0.11667681 0.34233636 1.5010672
0.10615418 0.34239206 1.5018277
0.095503964 0.34200326 1.5005689
0.08509469 0.34248778 1.5031327
0.074319705 0.3414292 1.4988055
0.06364993 0.3405849 1.4953779
0.052997008 0.33951545 1.4909018
0.042602025 0.33997893 1.4931781
0.032157242 0.34021747 1.4944086
0.021627398 0.33935183 1.4906905
0.011186888 0.33957988 1.4917779
0.00073090167 0.33914325 1.4898673
-0.0097295148 0.33980039 1.4927633
-0.020060303 0.33759499 1.4829067
-0.030591872 0.33912075 1.4895617
-0.041030612 0.3391028 1.4893174
-0.051467441 0.33907959 1.4890018
-0.062022254 0.33971041 1.4915392
-0.072239734 0.33857816 1.4862082
-0.082869008 0.33941808 1.489576
-0.093427725 0.33981326 1.4909222
-0.10380773 0.33954433 1.4892759
-0.11402165 0.33883104 1.4856135
-0.12491559 0.34008875 1.4906334
-0.13579738 0.34112135 1.4946036
-0.14551672 0.33929527 1.4858726
-0.15643279 0.34031728 1.489696
-0.16762421 0.34177241 1.4953805
-0.17695877 0.33949327 1.4845111
-0.1885716 0.34159541 1.4929492
-0.19762743 0.33908817 1.4809861
-0.20908129 0.34074065 1.4873326
-0.22063307 0.34238714 1.4935936
-0.23021205 0.34096158 1.4862646
-0.24186397 0.34259668 1.4923645
-0.25328958 0.34378797 1.4964515
-0.26394445 0.34387952 1.4956473
-0.35315803 0.44236684 1.9267945
-0.37931749 0.45749101 1.9914554
-0.3947432 0.45904976 1.9964775
-0.41161951 0.46212938 2.0080779
-0.42525694 0.46148837 2.0033078
-0.43864134 0.46062309 1.9974934
-0.4543252 0.46215111 2.0020654
-0.46854779 0.46214497 1.9998628
-0.484584 0.46387529 2.0051541
-0.50235707 0.46712163 2.016953
-0.5118919 0.46274003 1.995499
-0.52560681 0.46227211 1.9910065
-0.53877801 0.46136332 1.9845364
-0.55110538 0.45979714 1.9751592
-0.57267469 0.46582708 1.9985696
-0.5732649 0.45491436 1.9486868
-0.60175329 0.46613282 1.9942802
-0.61572027 0.46584195 1.9901129
-0.60416967 0.44669774 1.9048301
-0.6480667 0.46848893 1.9954263
-0.66878074 0.47293708 2.0113363
-0.682253 0.47218361 2.0048549
-0.69088811 0.46818379 1.9844416
-0.71228528 0.47281885 2.0008321
-0.73063076 0.47528315 2.0078382
-0.74978799 0.47816837 2.0165195
-0.75911665 0.47479513 1.9985331
-0.78261733 0.48024583 2.0178819
-0.79999977 0.48180965 2.0206404
-0.81201035 0.48014012 2.0096581
-0.82058257 0.47653362 1.9904715
-0.83419633 0.47593006 1.9838825
-0.87032324 0.48796999 2.0302291
-0.86555505 0.47706145 1.9802843
-0.88659585 0.48050454 1.9903637
-0.89619052 0.47773296 1.9744165
-0.91620201 0.48051417 1.9815178
-0.94215113 0.48627159 2.0008278
-0.94575185 0.48049465 1.9722335
-0.97115231 0.48580053 1.9894093
-0.99900448 0.49215335 2.0107093
-1.0144984 0.49231902 2.0063915
-1.0082126 0.48206604 1.9593101
-1.0558248 0.49750748 2.0173461
-1.0696089 0.49679536 2.0091443
-1.0870353 0.49777117 2.007736
-1.103093 0.4981018 2.0036089
-1.1172521 0.49757788 1.9959377
-1.0914716 0.47952113 1.9175228
-1.1517483 0.49924982 1.9913174
-1.1451485 0.48985156 1.9478385
-1.1958209 0.50487804 2.0021014
-1.2125138 0.50535673 1.9979652
-1.2118623 0.49868611 1.9653386
-1.229912 0.49978161 1.9635451
-1.248521 0.50107455 1.9624228
-1.2946218 0.51323467 2.0039446
-1.2693404 0.49714428 1.9342831
-1.2889873 0.49882412 1.9344169
-1.3037951 0.4986138 1.9270637
-1.3273773 0.5017249 1.9325327
-1.3544407 0.50606513 1.9425949
1.4186763 0.50709587 2.0034046
1.3782114 0.49828985 1.9753345
1.38788 0.50761551 2.0196285
1.3696865 0.50685006 2.0235033
1.3309742 0.49838313 1.9961892
1.3419027 0.50852412 2.0439205
1.3252556 0.50833493 2.0498674
1.2876732 0.5000118 2.022572
1.2717489 0.49999577 2.0289435
1.2465982 0.496306 2.0201631
1.2271975 0.49484029 2.0203562
1.2163517 0.49683088 2.0346909
1.1945094 0.49432313 2.0303743
1.1747427 0.49261898 2.0292485
1.1560185 0.49131182 2.0296509
1.1444864 0.49306741 2.0427234
1.1163937 0.48763815 2.0256791
1.1006562 0.48752862 2.0307548
1.0556221 0.47425416 1.9803441
1.057408 0.48193434 2.0179696
1.0360068 0.47911704 2.0112755
1.0288134 0.48288432 2.0323622
1.0118505 0.4821108 2.0341423
0.99406427 0.48091507 2.0340247
0.97885895 0.48095027 2.0390582
0.96985638 0.48408246 2.0572708
0.93655354 0.47499129 2.0230064
0.92670906 0.47769448 2.0392129
0.90758073 0.4756225 2.034806
0.88271821 0.47042447 2.0167749
0.87464494 0.4741489 2.0371935
0.85124731 0.46955091 2.0214968
0.84369195 0.47368336 2.0435884
0.83186394 0.47552353 2.0556877
0.80307692 0.46755809 2.0249484
0.79024476 0.46875656 2.0340626
0.77871031 0.47078556 2.0467563
0.76263261 0.47009358 2.0474629
0.74159622 0.46625629 2.0342538
0.72567886 0.46554664 2.0346811
0.70403737 0.46105886 2.0183547
0.69864684 0.46724889 2.0490639
0.67690271 0.46253315 2.0315223
0.66385442 0.46368182 2.0398321
0.64719737 0.46230489 2.0368695
0.62946635 0.46007895 2.0300388
0.61664224 0.46141908 2.0389812
0.58615571 0.44928619 1.9877945
0.58455551 0.45924154 2.0350034
0.56899345 0.45845702 2.0342438
0.55449218 0.45850843 2.0371432
0.54072523 0.45918617 2.0427775
0.51554334 0.44993916 2.0038064
0.5015161 0.45017761 2.0072827
0.48861033 0.45146626 2.0154145
0.47717157 0.4542293 2.0301278
0.45736691 0.44895267 2.008553
0.45187682 0.45783979 2.0507767
0.42641357 0.44640839 2.0012238
0.41534969 0.44978359 2.0184524
0.39858988 0.44701144 2.0078168
0.38181639 0.44401854 1.9960893
0.36821055 0.44462103 2.0005717
0.35321036 0.44352069 1.9972631
0.33924785 0.44368607 1.9996272
0.31951451 0.4359912 1.9661998
0.30696067 0.43783975 1.9760606
0.29784003 0.44499314 2.0100129
0.27783304 0.43578404 1.9694179
0.26458383 0.43676457 1.975142
0.2487061 0.43327448 1.9604193
0.23246904 0.42871273 1.9407235
0.21412838 0.4194625 1.8995371
0.17742577 0.370628 1.6774434
0.14951997 0.33453372 1.5132971
0.13777326 0.33183649 1.5016313
0.12741998 0.33232656 1.504483
0.11688407 0.33238584 1.5053166
0.10620653 0.33201411 1.5041287
0.095489733 0.33142421 1.5018923
0.084918283 0.33125505 1.5015323
0.074212886 0.33044159 1.4981724
0.064051159 0.33217973 1.5064524
0.052954577 0.32879892 1.4912306
0.042678203 0.33010083 1.4974163
0.032173153 0.32990596 1.4966948
0.021624088 0.32885346 1.491994
0.011185179 0.32907459 1.4930829
0.00073173741 0.32907751 1.4931235
-0.009746925 0.32992786 1.4970009
-0.02010943 0.32800242 1.4881064
-0.030448327 0.32713756 1.4840262
-0.040838074 0.32712018 1.483783
-0.051392782 0.32816321 1.4883511
-0.062093049 0.32962719 1.4947984
-0.072228514 0.32810298 1.4875075
-0.082587957 0.32785228 1.4860036
-0.093171731 0.32844862 1.4883304
-0.10352304 0.32818782 1.4866842
-0.11429963 0.32919967 1.4908135
-0.12505782 0.32999328 1.4938929
-0.13542706 0.32971725 1.4920306
-0.14596494 0.32986188 1.4920431
-0.15640868 0.32978871 1.4910115
-0.16684528 0.32971057 1.4899083
-0.17658801 0.3283515 1.4829117
-0.18745293 0.32911426 1.4855494
-0.19874649 0.33050925 1.4910157
-0.20918338 0.33041111 1.4896235
-0.21961078 0.33030805 1.4881599
-0.23106372 0.33168656 1.4933867
-0.24260002 0.33305928 1.4985279
-0.25163814 0.33103088 1.4881613
-0.2655842 0.3353627 1.5066241
-0.3494865 0.42428985 1.9086163
-0.37913814 0.44319606 1.992612
-0.39662543 0.44703791 2.0081973
-0.41006613 0.44621092 2.0025668
-0.42546147 0.44749507 2.0064127
-0.43448627 0.44221237 1.9805381
-0.45068178 0.44433019 1.9880115
-0.46921417 0.44855341 2.0048776
-0.48253831 0.44769543 1.9987715
-0.49767613 0.44852123 2.0001705
-0.51430345 0.45060602 2.0071406
-0.52684623 0.4490962 1.997902
-0.54309791 0.45074412 2.0027475
-0.56022567 0.4530158 2.0102911
-0.57668495 0.45464674 2.014874
-0.58365983 0.44890335 1.9864782
-0.60455817 0.45388725 2.0058522
-0.62002289 0.4546546 2.0063393
-0.6032809 0.43230784 1.9041117
-0.64807111 0.45406809 1.997656
-0.66939992 0.45880058 2.0154555
-0.67882168 0.45534429 1.9969238
-0.69376254 0.45565712 1.9949964
-0.71196675 0.45805669 2.0021808
-0.72698945 0.45835432 2.0000103
-0.7413435 0.45822686 1.9958934
-0.75602371 0.45830205 1.9925901
-0.77525961 0.46108398 2.0010459
-0.78750783 0.45968381 1.991124
-0.80511379 0.46140513 1.9947473
-0.82614225 0.46499124 2.0063717
-0.8357113 0.46211478 1.9898127
-0.85504055 0.46464142 1.9966234
-0.86556643 0.46237963 1.9826181
-0.88463497 0.46468067 1.9882501
-0.90182203 0.46593404 1.9892522
-0.92070091 0.46800688 1.9936694
-0.93100059 0.4657222 1.979303
-0.95668793 0.47108617 1.9975852
-0.9711749 0.47085461 1.9918259
-1.0007632 0.47784057 2.0166843
-1.0004994 0.47057706 1.9808671
-1.0126801 0.46929437 1.9704312
-1.0491033 0.47912043 2.006829
-1.0536625 0.47432142 1.9813632
-1.0653259 0.47281063 1.9697281
-1.08579 0.47519353 1.9743506
-1.1021018 0.4757188 1.9710801
-1.1222724 0.47787282 1.974499
-1.1352466 0.47694609 1.964994
-1.1653941 0.48316351 1.9850084
-1.1998714 0.4909912 2.0114381
-1.1954209 0.48289302 1.9720464
-1.2180473 0.48579919 1.9779277
-1.2408184 0.48868969 1.9835901
-1.2569435 0.48892349 1.9782639
-1.2524648 0.48123515 1.9406492
-1.2875583 0.48875362 1.9647659
-1.2896005 0.48369628 1.93782
-1.3011454 0.48228025 1.9255849
-1.3191959 0.48328045 1.9230007
-1.3445129 0.48688918 1.9307368
1.4204648 0.4916063 2.0084686
1.4011635 0.4904958 2.0110006
1.3675432 0.48428866 1.9922897
1.3648554 0.48901841 2.0188162
1.3278027 0.48140153 1.9938606
1.3302171 0.48808262 2.0284853
1.3041706 0.48435634 2.0194867
1.2840754 0.48277569 2.0193467
1.2780203 0.48650008 2.0415108
1.2430729 0.47918129 2.0168538
1.2221924 0.47716698 2.0144885
1.2119052 0.47928995 2.0296409
1.1906054 0.47705603 2.0261185
1.1791761 0.47877038 2.0394022
1.1637682 0.4788937 2.0457962
1.1383392 0.47484034 2.0340817
1.1173655 0.47255868 2.0298545
1.0979036 0.4708612 2.0280252
1.0835627 0.47134286 2.0355554
1.0610442 0.46822974 2.0273306
1.0355798 0.46370614 2.0127835
1.0240004 0.46535763 2.025131
1.0058032 0.46400619 2.0242319
0.99621791 0.46664706 2.0408137
0.98098099 0.46668181 2.0458579
0.95120811 0.45969281 2.0197253
0.95127445 0.46713147 2.0573878
0.926319 0.4623253 2.0406621
0.91511798 0.46433824 2.054153
0.89598012 0.46232396 2.0496132
0.87964034 0.46170896 2.0512171
0.86408097 0.46148923 2.0545015
0.84295756 0.45823705 2.0440722
0.82275546 0.4553766 2.0352685
0.81275523 0.45816132 2.051806
0.79271239 0.45528319 2.0427129
0.77249414 0.45219171 2.032526
0.76840472 0.45860544 2.0653355
0.75058538 0.4569172 2.0613458
0.72568059 0.45075905 2.0368996
0.70467609 0.44681779 2.0223904
0.69614148 0.45078382 2.0438671
0.67782438 0.44844994 2.0365005
0.6653589 0.44996986 2.0466847
0.64131445 0.44355038 2.020375
0.63291806 0.44790679 2.0434332
0.61270618 0.44390985 2.0280228
0.59631211 0.44255164 2.0246491
0.58428711 0.4444491 2.0362129
0.56820834 0.44328108 2.0335572
0.54684049 0.43781722 2.010931
0.53277403 0.43806186 2.0146222
0.51505554 0.43523413 2.0039887
0.50527817 0.43914685 2.0245638
0.48906544 0.43753207 2.0194032
0.47317225 0.43611407 2.0150709
0.46296787 0.44001445 2.0354416
0.44707328 0.4385837 2.0309062
0.42641017 0.43222427 2.003268
0.41358733 0.4336479 2.0118868
0.39594153 0.42993587 1.9964174
0.38363639 0.431963 2.0077281
0.36715382 0.42926162 1.9968208
0.35134843 0.42716801 1.9886764
0.33827141 0.4283554 1.9958533
0.32402283 0.42809787 1.9961826
0.30755252 0.42474857 1.9819044
0.29186484 0.42221367 1.9713697
0.27931994 0.42419896 1.9820375
0.26123142 0.41753194 1.9518847
0.24589404 0.41476768 1.9400283
0.23534839 0.42023548 1.9669249
0.21890169 0.41519132 1.9441723
0.18087305 0.3658269 1.7120491
0.14949614 0.32385522 1.5145704
0.13836956 0.3226859 1.5097073
0.12731756 0.32151118 1.504765
0.11656541 0.32094982 1.502671
0.10564394 0.31976447 1.4975737
0.095289886 0.32022449 1.500212
0.084631175 0.31964791 1.4978956
0.074392095 0.32071733 1.5033238
0.063753061 0.3201308 1.5008627
0.053289026 0.32036486 1.5022397
0.04267114 0.31956187 1.4986553
0.032063849 0.31834087 1.4930413
0.02166252 0.31897298 1.4961594
0.011183308 0.31856781 1.4943147
0.00073208916 0.31877711 1.4953338
-0.0096949134 0.31774268 1.4904109
-0.020145237 0.31814852 1.4922659
-0.030740792 0.31978807 1.4999188
-0.040937539 0.31750026 1.4889144
-0.051350687 0.31747842 1.4885994
-0.061801601 0.3176581 1.4891912
-0.071700081 0.31535619 1.4779831
-0.082681239 0.31779626 1.4891828
-0.093579084 0.31940544 1.4963961
-0.10323655 0.31688318 1.4840076
-0.11413243 0.31827599 1.4900978
-0.12535974 0.3202821 1.4990349
-0.13496691 0.31815866 1.4883976
-0.14584616 0.31912357 1.4923111
-0.1556756 0.31781596 1.4854404
-0.16660164 0.3187708 1.4892056
-0.17781626 0.32013229 1.494836
-0.18754198 0.31881094 1.4877605
-0.19768994 0.31830901 1.4845046
-0.20982084 0.3208901 1.4957206
-0.21943212 0.31955522 1.4884427
-0.22954494 0.31903926 1.4849745
-0.24147695 0.32098639 1.4930354
-0.25127259 0.32004964 1.4874904
-0.26386049 0.322602 1.4982729
-0.3508738 0.41244248 1.9182087
-0.3782275 0.4280867 1.9898208
-0.39229763 0.4281143 1.988151
-0.40811595 0.42998192 1.9950162
-0.42263961 0.43040615 1.9950544
-0.44072023 0.4343082 2.0112484
-0.45368123 0.43307877 2.0034146
-0.46589243 0.43122995 1.9926389
-0.48002791 0.43121877 1.9903597
-0.49274907 0.42997405 1.9822798
-0.51333588 0.43547118 2.0054293
-0.53204072 0.43911734 2.0198667
-0.53928155 0.43335888 1.9906555
-0.55188024 0.43209121 1.9822021
-0.57534605 0.43918228 2.0122848
-0.58994973 0.43932739 2.0101805
-0.60035002 0.43640998 1.9939007
-0.61485708 0.43654424 1.9916166
-0.63522917 0.44074181 2.0079107
-0.65496045 0.44431776 2.0212231
-0.66388577 0.44056696 2.0008788
-0.67725343 0.43986118 1.9944271
-0.6943959 0.44158539 1.9989961
-0.71489304 0.44532886 2.0126598
-0.72997344 0.44561577 2.0104742
-0.74641484 0.44670582 2.0118527
-0.74774563 0.43888485 1.9727693
-0.7787686 0.44845775 2.0123892
-0.78893423 0.4458876 1.9969658
-0.80292892 0.44553563 1.9915012
-0.81911039 0.4463881 1.9913799
-0.84286219 0.45126367 2.0092151
-0.86154777 0.45330533 2.014194
-0.8686772 0.44930059 1.9920405
-0.90321398 0.45936868 2.0326257
-0.90583944 0.45314276 2.0004504
-0.92886025 0.45715588 2.0137653
-0.94507802 0.45774642 2.0117619
-0.95921689 0.45732728 2.0052049
-0.98354691 0.46170512 2.0197201
-0.99775124 0.46126896 2.012893
-1.0101585 0.46002743 2.0024612
-1.0260315 0.46037748 1.9989387
-1.0414582 0.46052009 1.9944221
-1.06236 0.463045 2.0001907
-1.0699713 0.45978755 1.9807159
-1.100818 0.46646655 2.0042577
-1.1197 0.46796188 2.0051775
-1.1247025 0.46369448 1.9811659
-1.1528054 0.46893784 1.9980115
-1.1738088 0.47119316 2.0018535
-1.1809567 0.46790019 1.9818728
-1.2050506 0.47131971 1.9904612
-1.2262621 0.47353947 1.9937893
-1.2274357 0.46806261 1.9644219
-1.2376648 0.46613157 1.9500692
-1.2540948 0.46655452 1.9455816
-1.275332 0.46873412 1.9483616
-1.2810171 0.46521392 1.9272013
-1.3197502 0.47363698 1.9557643
-1.3115373 0.4652119 1.9141306
-1.3312128 0.46675909 1.9138767
1.4182864 0.4747484 2.0077989
1.3694267 0.463658 1.9674786
1.3814119 0.4731501 2.0150754
1.3414134 0.46485093 1.9862593
1.3354251 0.46828046 2.0077939
1.3243864 0.47000021 2.0219331
1.317981 0.47342607 2.0434575
1.2940656 0.47056937 2.0375838
1.2651248 0.46579096 2.0231371
1.2804675 0.47740212 2.0804279
1.2222229 0.46152347 2.0168953
1.2134362 0.46415082 2.0345919
1.1975484 0.46409529 2.0403893
1.1699294 0.4594315 2.0256286
1.1498126 0.45762762 2.023407
1.1426436 0.46099821 2.0441742
1.1131508 0.45533079 2.0244515
1.1016289 0.45695826 2.037276
1.0840329 0.45607674 2.0387557
1.0465918 0.44669944 2.0017669
1.0507401 0.45505834 2.0447741
1.0200473 0.44835243 2.019516
1.0071062 0.44936422 2.0291388
0.999641 0.45288795 2.0501583
0.96708494 0.44497684 2.0188956
0.96905047 0.45295087 2.0601726
0.94596332 0.44928312 2.0480666
0.91786385 0.44307566 2.0241125
0.9131366 0.44813171 2.0519114
0.89090776 0.44462442 2.0401411
0.8711949 0.44227362 2.0335786
0.86332363 0.4459573 2.0549052
0.85074747 0.44729868 2.065325
0.82238352 0.44023734 2.0365241
0.81454313 0.44410458 2.0585518
0.79094493 0.43936425 2.0402949
0.78389609 0.44381145 2.0649428
0.75855833 0.43787551 2.0408294
0.73925865 0.43525758 2.0321467
0.71718067 0.43086383 2.0149755
0.70626587 0.43313336 2.02911
0.69111413 0.43284568 2.0311129
0.67750806 0.43353456 2.0376601
0.65662825 0.42949644 2.0217209
0.64424616 0.43095934 2.0317788
0.63492471 0.43458515 2.0520723
0.61241478 0.42914167 2.0291328
0.59877491 0.42980003 2.0351565
0.58401018 0.42966363 2.0373178
0.56976986 0.42991596 2.0412633
0.55014634 0.42601302 2.0252342
0.53002858 0.42150649 2.0061901
0.51673818 0.42232999 2.0126152
0.50385648 0.42354411 2.0208561
0.48859853 0.4227733 2.0194857
0.47738555 0.42556176 2.0351865
0.45541379 0.41863427 2.003978
0.44288594 0.42022142 2.0137444
0.42781734 0.41942322 2.0119267
0.41514477 0.42099997 2.0215228
0.39574307 0.41562194 1.997383
0.38180411 0.41579562 2.0000374
0.3680239 0.4161621 2.0035608
0.35336852 0.41552874 2.0021646
0.33339173 0.40832531 1.9687694
0.32043427 0.40946698 1.9758364
0.30635238 0.40921021 1.9760396
0.29356411 0.410739 1.9848708
0.2791771 0.41007182 1.9829448
0.26148042 0.40421838 1.9556596
0.24771737 0.40413445 1.9564253
0.23314855 0.4026491 1.9502845
0.21606824 0.39637166 1.920665
0.18279171 0.35757801 1.7320479
0.14908931 0.31237766 1.5118684
0.13825674 0.31184465 1.509922
0.12770341 0.31190529 1.5108294
0.11661951 0.31056404 1.5048255
0.10576121 0.30961677 1.500698
0.0956413 0.31086063 1.5072514
0.084779859 0.30970395 1.5019982
0.074522495 0.31073886 1.5074341
0.063700505 0.30937251 1.5010537
0.053210791 0.30939934 1.5014526
0.042608283 0.30862227 1.4978619
0.032057986 0.30784035 1.4941986
0.02165859 0.30845201 1.4973208
0.01118852 0.30825973 1.4964529
0.00073053286 0.30766311 1.493554
-0.0097939689 0.310458 1.507241
-0.020141549 0.3076542 1.4934217
-0.030516859 0.30704328 1.4903097
-0.040956613 0.30722666 1.4910456
-0.051374599 0.3072055 1.4907306
-0.061790198 0.30717957 1.4903445
-0.071780391 0.30535153 1.4810789
-0.082612254 0.30711341 1.4893591
-0.093078256 0.30727288 1.489738
-0.10362071 0.30762723 1.4910227
-0.11411139 0.30777708 1.4912571
-0.12428727 0.30712393 1.4875133
-0.13485442 0.30746391 1.4885817
-0.14515957 0.30720058 1.4866507
-0.15665661 0.30932596 1.4963465
-0.16581665 0.3068597 1.483554
-0.1777838 0.30957279 1.4960121
-0.18847682 0.3098883 1.4967079
-0.1990602 0.30999973 1.4963576
-0.20816682 0.30791563 1.4852567
-0.21811919 0.30722189 1.4808912
-0.23039047 0.30970868 1.4919609
-0.24127792 0.31019941 1.4932557
-0.25106442 0.30929294 1.4877067
-0.26314014 0.31116614 1.4956123
-0.33407629 0.37981373 1.827439
-0.37531421 0.41085267 1.9763236
-0.39304009 0.41485223 1.9939128
-0.40674251 0.41447529 1.9902209
-0.41980916 0.41349736 1.9835588
-0.43592533 0.41548917 1.9911798
-0.44873276 0.4143014 1.9833728
-0.46366754 0.41509017 1.9850341
-0.48366249 0.42022902 2.0075591
-0.49906763 0.42120001 2.0099163
-0.51404786 0.42176825 2.010258
-0.52707696 0.42074817 2.0029025
-0.54104757 0.42051369 1.9992512
-0.55499482 0.42027348 1.995504
-0.56838334 0.41963285 1.9897746
-0.58555543 0.42174876 1.997135
-0.60201782 0.42326465 2.0015359
-0.62000632 0.42575791 2.0104933
-0.63785678 0.42804506 2.018363
-0.65165043 0.42756855 2.0130146
-0.67183679 0.43121597 2.0271323
-0.68224305 0.4285644 2.0113308
-0.70140481 0.43140861 2.0214424
-0.71553183 0.43110317 2.0165875
-0.72398281 0.42745873 1.9959494
-0.74166346 0.42929983 2.0010619
-0.75531471 0.42878258 1.9950093
-0.77383912 0.43099904 2.0016828
-0.79356927 0.43379238 2.0109351
-0.80582577 0.43247309 2.0008857
-0.82502073 0.43485811 2.0080187
-0.83418947 0.4319675 1.9905304
-0.85196596 0.43355706 1.9937807
-0.87138915 0.43591639 2.0004818
-0.88304204 0.43437481 1.989056
-0.9058302 0.4382714 2.0026226
-0.91865647 0.43730009 1.9936651
-0.93803269 0.43942803 1.9988548
-0.9575305 0.44154546 2.0038714
-0.975869 0.44307131 2.0060627
-0.99385679 0.44439402 2.0072153
-1.0097185 0.44474086 2.0038261
-1.0309256 0.4473972 2.0108075
-1.0419101 0.44560444 1.997548
-1.0527645 0.44380808 1.9842325
-1.072752 0.44585836 1.9881641
-1.0966046 0.44943562 1.9988083
-1.1163853 0.45126894 2.0014889
-1.1396306 0.4544341 2.0099778
-1.1489235 0.45202541 1.9935328
-1.1688969 0.45382699 1.9957243
-1.1929542 0.45714667 2.0044951
-1.1974984 0.45299956 1.9802024
-1.2262905 0.45801398 1.9961754
-1.2491665 0.46072099 2.0018282
-1.2444834 0.45332229 1.9632159
-1.2752613 0.45886379 1.9810271
-1.2710894 0.45184755 1.9441423
-1.3058904 0.4586876 1.9672698
-1.3099687 0.45470247 1.9434844
-1.333083 0.45734078 1.9481726
-1.3468561 0.45675048 1.9388893
1.3754795 0.44480139 1.9490159
1.3901187 0.45469838 1.999772
1.3753784 0.45510375 2.0085406
1.3660533 0.45733166 2.0253718
1.3435749 0.45515662 2.0224736
1.3303076 0.45608717 2.0333779
1.2931271 0.44874203 2.0069299
1.3009022 0.45700872 2.0507684
1.2900031 0.45883968 2.0655708
1.242612 0.44757295 2.0207541
1.2197045 0.4449493 2.0149796
1.2074473 0.4461931 2.0267508
1.1886638 0.44502625 2.0274057
1.1811653 0.44810966 2.0475125
1.1478853 0.44136328 2.0222352
1.1516978 0.44888952 2.0627756
1.11597 0.44099945 2.0318565
1.0955923 0.43903854 2.0282545
1.0863204 0.44153574 2.0453267
1.0777724 0.44440365 2.0641115
1.056978 0.4422321 2.0592396
1.0235536 0.43463263 2.0287042
1.0049254 0.43318114 2.0268946
0.99706656 0.4363986 2.047035
0.9776029 0.43455803 2.0432045
0.95658541 0.43195745 2.0356419
0.9287737 0.4261556 2.0127058
0.92267835 0.43029121 2.0369632
0.89646995 0.42502859 2.0163019
0.87450147 0.42163205 2.0043907
0.87194443 0.42763871 2.0374711
0.86179787 0.43006846 2.0533848
0.83773685 0.42551717 2.0356164
0.83623481 0.43246725 2.0732276
0.80950612 0.42638686 2.0478361
0.79444903 0.42634088 2.0515082
0.77108163 0.42174783 2.033015
0.75718111 0.42225417 2.039175
0.74023771 0.42104995 2.0369279
0.72205853 0.41907945 2.0308414
0.71040899 0.42089555 2.043165
0.69297695 0.41929013 2.0386796
0.6768741 0.41843671 2.037782
0.66202384 0.41833687 2.0404987
0.64098805 0.41423514 2.0234413
0.62655807 0.41431105 2.0268407
0.61267722 0.41476226 2.0320199
0.5929839 0.41120487 2.0173149
0.5810408 0.41297838 2.0288765
0.56530225 0.41207603 2.0271251
0.52715325 0.39436111 1.9418465
0.52428871 0.40279859 1.9862341
0.52253109 0.41257799 2.0373311
0.50501728 0.41011959 2.0275133
0.48423183 0.40478206 2.003237
0.47670406 0.4105393 2.0342212
0.4534553 0.40269434 1.9972152
0.44475234 0.40767774 2.0242381
0.42274058 0.40038753 1.9897741
0.41180223 0.40344444 2.0070395
0.39402533 0.39978066 1.9905432
0.38160717 0.40148413 2.0009005
0.36379054 0.39742059 1.9822173
0.35250971 0.4004578 1.9991537
0.3385756 0.40060803 2.0015125
0.32260123 0.39825252 1.9911803
0.30216527 0.38992605 1.9506577
0.29298273 0.39602038 1.9827725
0.27482486 0.38998574 1.9536247
0.26288626 0.39260626 1.9681001
0.25198281 0.3971484 1.9922408
0.23082778 0.38511869 1.9325227
0.21420765 0.37962881 1.9057708
0.18195564 0.34386843 1.7256638
0.14934662 0.30230224 1.5159173
0.13840726 0.30159447 1.5129912
0.12702508 0.29972455 1.5041215
0.11629702 0.29919961 1.5020173
0.10574058 0.29905584 1.5017962
0.095622919 0.3002581 1.5083576
0.084708683 0.29894719 1.5021163
0.074124858 0.29859638 1.5006984
0.063441232 0.29766175 1.4962667
0.053234797 0.29903895 1.5035281
0.042710289 0.2988672 1.5028747
0.032030839 0.29714614 1.4943017
0.021696437 0.29850963 1.5013522
0.011150047 0.29677916 1.4926341
0.00073038827 0.29716796 1.494637
-0.0096912021 0.29677975 1.492644
-0.02016373 0.29754549 1.4964666
-0.0305505 0.29695499 1.4933506
-0.040975101 0.29693913 1.4931065
-0.051364362 0.29672554 1.4918108
-0.061496511 0.29534915 1.4845623
-0.07209456 0.29628471 1.4890077
-0.08232706 0.29567146 1.4855412
-0.092454597 0.29486081 1.4810269
-0.10326368 0.29616815 1.4872129
-0.11305216 0.29457688 1.4786457
-0.1243431 0.29683918 1.4895737
-0.13491495 0.29716766 1.4906446
-0.14513037 0.29672024 1.4877352
-0.15551418 0.29665402 1.4867095
-0.16578303 0.29639053 1.4846375
-0.1761453 0.29631531 1.4834709
-0.18734832 0.29758394 1.4890498
-0.19761308 0.29730695 1.4867629
-0.20745124 0.29644814 1.4814909
-0.21906468 0.29808706 1.4887794
-0.23034456 0.29914337 1.4930693
-0.24045584 0.29865602 1.4895234
-0.25166008 0.29951024 1.4926864
-0.26426563 0.30189675 1.5035019
-0.33317426 0.36593917 1.8241947
-0.36966932 0.39094627 1.9482195
-0.39020118 0.39788505 1.9812871
-0.41042888 0.40404478 2.0103178
-0.42160529 0.40118006 1.9940196
-0.42945442 0.39543691 1.9632781
-0.45537263 0.40617016 2.0148864
-0.46364811 0.40099299 1.9868664
-0.48524094 0.40729919 2.0161099
-0.49130696 0.4005847 1.9803418
-0.51258206 0.40629944 2.0064321
-0.52829605 0.40741605 2.0095296
-0.53772002 0.40375081 1.9888052
-0.55288559 0.40447429 1.989813
-0.56648803 0.4040466 1.9850403
-0.59128684 0.41143048 2.0188246
-0.60199529 0.40889165 2.0034423
-0.62113267 0.41206288 2.0161746
-0.6360746 0.41236982 2.0146861
-0.64922816 0.41152948 2.0074797
-0.66844499 0.41448542 2.0188429
-0.68347186 0.41477263 2.0170088
-0.70170248 0.41695154 2.0243485
-0.71127349 0.41400108 2.0065255
-0.72296029 0.41237551 1.9951349
-0.74671799 0.41756392 2.0168595
-0.75839376 0.41592634 2.0052552
-0.7699483 0.41428548 1.9935867
-0.78352785 0.41377482 1.9873418
-0.79924655 0.41439182 1.9864765
-0.82981294 0.42254737 2.0218689
-0.84094477 0.42069402 2.0088658
-0.84619439 0.4160127 1.9822409
-0.89200062 0.4310908 2.0503147
-0.88618147 0.42113215 1.9982857
-0.90902275 0.42489696 2.0118606
-0.92965174 0.42752272 2.0198534
-0.93096769 0.4213247 1.985798
-0.95793134 0.42674625 2.006861
-0.98054457 0.43009257 2.0179119
-0.99600428 0.43024728 2.0137537
-1.0118976 0.43058184 2.0103562
-1.026461 0.43034911 2.0042071
-1.0346758 0.42749989 1.9857341
-1.0609804 0.43209961 2.0020266
-1.075056 0.43165934 1.9946557
-1.096596 0.43418679 2.0009968
-1.1097231 0.43335962 1.991655
-1.1324072 0.43623644 1.9993595
-1.1537951 0.43854383 2.0042846
-1.1762983 0.44120872 2.0107079
-1.1874669 0.43960822 1.9974467
-1.2040693 0.4400346 1.9933995
-1.2186323 0.43971434 1.98586
-1.2264309 0.43699187 1.9673479
-1.2408311 0.43665975 1.9596431
-1.2879672 0.44771528 2.0032105
-1.2919462 0.44368303 1.9785684
-1.2961861 0.43983534 1.9547899
-1.3214542 0.44312984 1.962931
-1.3391771 0.44384694 1.9594246
-1.3602622 0.44564909 1.9606273
1.4189351 0.44274259 2.0133502
1.4035462 0.44297063 2.0215104
1.3875612 0.44301367 2.0287411
1.3578682 0.43862963 2.0153935
1.3479215 0.44059581 2.0313251
1.298189 0.42944792 1.9861134
1.288363 0.43139046 2.001689
1.2511406 0.42409459 1.973905
1.2594483 0.4322423 2.0184922
1.2774389 0.44396135 2.0800915
1.2136215 0.42718485 2.0070355
1.1959311 0.42641994 2.0094495
1.1352534 0.41010606 1.9377075
1.1518486 0.42164379 1.9984585
1.155107 0.42854521 2.0372355
1.1507361 0.43276626 2.0632405
1.1357118 0.43304241 2.0702724
1.1030023 0.4264881 2.0442402
1.0817183 0.42422751 2.0387464
1.074138 0.42735368 2.0592618
1.0386666 0.41931194 2.0254169
1.0411289 0.42657262 2.0659561
1.0157452 0.42247134 2.0510128
0.99276447 0.4192588 2.0402462
0.9754687 0.41838428 2.040813
0.95281863 0.41514915 2.0296488
0.93446797 0.41371325 2.0272129
0.92949808 0.41825134 2.0542252
0.90159255 0.41244826 2.0299718
0.88695765 0.41262227 2.035218
0.87037718 0.41188169 2.0358322
0.8500576 0.40931463 2.0272367
0.83919138 0.4112891 2.0412188
0.81977731 0.40906999 2.0341494
0.80552965 0.40939444 2.0397263
0.79477251 0.41153857 2.0543821
0.7772792 0.41021001 2.0515013
0.75409347 0.4057664 2.0327935
0.73587441 0.40387121 2.0268147
0.72496909 0.40599456 2.0410807
0.70493263 0.40298629 2.0292692
0.68980789 0.40271771 2.0312541
0.67192483 0.40079221 2.0247245
0.65416843 0.39885846 2.0180466
0.63801241 0.3978349 2.0159106
0.62969768 0.40176681 2.0390246
0.61687267 0.40293941 2.0479925
0.59845543 0.40042749 2.0380082
0.57967132 0.39753854 2.0259783
0.56527561 0.39758837 2.0289459
0.53912097 0.3891528 1.9881543
0.5274936 0.39103118 2.0003493
0.51935858 0.39567441 2.0267668
0.49863109 0.39071524 2.0035515
0.48878732 0.39424354 2.0241134
0.47134393 0.3916702 2.0130455
0.45709956 0.39167756 2.0152581
0.44326681 0.39204937 2.0192921
0.42960373 0.39260101 2.0241947
0.4088425 0.38648069 1.9943386
0.39703146 0.38868633 2.0076902
0.38103935 0.38681063 1.9997317
0.36957452 0.38956308 2.0158203
0.35249108 0.38637638 2.0008721
0.33449459 0.38188255 1.9790028
0.32460952 0.38666111 2.0054936
0.30796203 0.38345253 1.9901792
0.29424804 0.38376543 1.9932061
0.27887872 0.38184297 1.9844619
0.2632575 0.37935594 1.9726806
0.24756816 0.37648997 1.9588317
0.2312741 0.37231478 1.9380322
0.21353886 0.36515552 1.9014807
0.1819324 0.33175206 1.7269919
0.14922084 0.29144204 1.5159885
0.13758202 0.28926966 1.5052282
0.12708028 0.28932616 1.5061309
0.11642262 0.28900582 1.505003
0.10503586 0.28663218 1.4930199
0.095295683 0.28872395 1.5044872
0.08452677 0.28783098 1.5001968
0.073917516 0.28730604 1.4977938
0.063674726 0.2882672 1.5031706
0.053017363 0.28736049 1.4986596
0.042563327 0.28738099 1.4989858
0.031982362 0.28627875 1.493347
0.021593599 0.28666303 1.4954945
0.011096859 0.28499252 1.486764
0.00073023268 0.28667265 1.4956468
-0.0096891308 0.28629792 1.4936513
-0.020107089 0.28629148 1.4935495
-0.030524105 0.28628063 1.4933769
-0.040646508 0.28421524 1.4823298
-0.051253062 0.2856864 1.4898725
-0.061845046 0.28659391 1.4943959
-0.071985044 0.28544718 1.4880499
-0.082739286 0.28671822 1.4943907
-0.093039677 0.28630796 1.4918293
-0.10357785 0.28663841 1.4931194
-0.11376795 0.28603324 1.4894382
-0.12431631 0.28635475 1.4905849
-0.13444799 0.285741 1.4867653
-0.14509897 0.28623974 1.4887465
-0.15679465 0.2885946 1.5004262
-0.16585478 0.28610733 1.4866248
-0.17610689 0.28584865 1.484482
-0.18718658 0.28688723 1.4890952
-0.19757022 0.2868056 1.4877824
-0.20754056 0.28616229 1.4834788
-0.2188759 0.28737268 1.4888338
-0.22896148 0.28690663 1.4853617
-0.2408687 0.28866428 1.4934671
-0.2511214 0.28837514 1.4908183
-0.2648834 0.29197741 1.5084313
-0.3256177 0.34508196 1.7841034
-0.37364125 0.38127229 1.9711227
-0.39394492 0.38759783 2.0022819
-0.40709358 0.38668969 1.9956917
-0.42138064 0.38688746 1.9947883
-0.4373416 0.38855961 2.0014675
-0.45019251 0.3874504 1.9936379
-0.46472946 0.38781559 1.9933881
-0.47540751 0.38503388 1.9767828
-0.49104369 0.38631207 1.9811226
-0.5140034 0.39312038 2.0139244
-0.52851701 0.39327505 2.0122662
-0.53998011 0.3912116 1.9991118
-0.55807537 0.39393559 2.0105343
-0.57314527 0.39444116 2.0104539
-0.59016162 0.39622876 2.01687
-0.60252541 0.39488193 2.0071332
-0.61392361 0.39297977 1.9945024
-0.63751167 0.3987895 2.0212116
-0.64919555 0.39705977 2.0093117
-0.656762 0.39294195 1.9852058
-0.67936957 0.39780694 2.0067539
-0.69847554 0.40046129 2.0169284
-0.71319461 0.40054339 2.0139503
-0.73023576 0.40190029 2.0173423
-0.74431252 0.40160432 2.0122888
-0.75835782 0.4013032 2.0071375
-0.76850414 0.39898917 1.9917885
-0.78921551 0.40214431 2.0038683
-0.80794936 0.40419537 2.010277
-0.82940859 0.4075121 2.0228984
-0.84995502 0.4102717 2.032594
-0.86186624 0.40883973 2.0212734
-0.87756056 0.40922058 2.0189145
-0.893664 0.40977624 2.0173352
-0.90496814 0.40814909 2.0048594
-0.91410524 0.40561303 1.9878501
-0.93175852 0.40687633 1.9895393
-0.95453238 0.41030112 2.0017471
-0.96557361 0.4086549 1.9889234
-0.99683976 0.41548854 2.0175495
-1.0105498 0.41490975 2.0097518
-1.0304389 0.41684765 2.0141394
-1.0387059 0.41409606 1.9956235
-1.0495149 0.412422 1.9823142
-1.0671471 0.41343871 1.9819654
-1.0857697 0.41480544 1.9831957
-1.1073196 0.41723773 1.9894289
-1.1266057 0.41876271 1.9911684
-1.1469499 0.42063507 1.9944445
-1.1688799 0.42303205 2.000087
-1.182956 0.4225612 1.9919566
-1.2065836 0.42547056 1.9997674
-1.2104384 0.42142215 1.9745578
-1.2450385 0.4280453 1.9996198
-1.2559887 0.42647442 1.9859527
-1.283209 0.43039897 1.9979571
-1.2903414 0.42757246 1.9782823
-1.2875344 0.42155898 1.9438006
-1.3143557 0.42527375 1.9544852
-1.3286953 0.4249104 1.9461476
-1.3457727 0.42542091 1.9417616
1.4099137 0.42391869 2.002629
1.3851146 0.42124546 1.9969245
1.3709747 0.42178938 2.0064712
1.3272159 0.41312659 1.9716706
1.3419615 0.42268515 2.0244434
1.3260305 0.42269525 2.0312064
1.2952347 0.41790932 2.0145891
1.2746989 0.41635662 2.013495
1.2578735 0.41599217 2.0180783
1.2405378 0.41544762 2.0216839
1.2176455 0.41300443 2.0158517
1.1999058 0.41226816 2.0182841
1.1876369 0.41341695 2.0299375
1.1733134 0.41387162 2.0380962
1.1584557 0.41414762 2.0452948
1.1325957 0.41044393 2.0325594
1.1135645 0.40914652 2.0316782
1.0867077 0.40489689 2.0158672
1.0803065 0.40825632 2.0381339
1.0605314 0.40658566 2.0350385
1.05023 0.40855142 2.0502021
1.0217252 0.40338883 2.0292017
1.0013828 0.40134132 2.0238173
0.98459333 0.40067673 2.0253437
0.97289687 0.4020963 2.0374126
0.95526761 0.40107006 2.0369177
0.94219971 0.40195665 2.0461273
0.93106985 0.40371266 2.0597446
0.90115082 0.39724451 2.0309539
0.8810553 0.394961 2.0235417
0.86418504 0.39406961 2.023201
0.86059487 0.39930883 2.0545418
0.83468866 0.3941958 2.03214
0.82082927 0.39468971 2.0387347
0.80369204 0.39359662 2.0369847
0.78979594 0.39407951 2.0433674
0.76996833 0.39156452 2.0339906
0.75574976 0.39185932 2.0392203
0.74349976 0.39320698 2.0499079
0.72067767 0.3889046 2.0308144
0.70553213 0.38865182 2.0329103
0.69322222 0.38998359 2.0432901
0.67434502 0.3875984 2.0339634
0.66015065 0.38785866 2.0385303
0.64445478 0.38722861 2.0383043
0.62562639 0.38464335 2.0276079
0.610641 0.38435411 2.0290103
0.5931924 0.38246256 2.0217993
0.56620544 0.37417322 1.9803629
0.54768354 0.3711969 1.9671123
0.54317045 0.37780815 2.0050213
0.53343165 0.3810432 2.0248709
0.51617587 0.37893924 2.0160694
0.50095481 0.37825167 2.0147715
0.49150631 0.38201022 2.0372849
0.46997789 0.37632343 2.0089629
0.45534274 0.37597376 2.0092452
0.44449416 0.37882867 2.0267286
0.42289001 0.37240204 1.9940902
0.40665826 0.37042701 1.9853591
0.39927694 0.37666032 2.0209169
0.3799175 0.37163708 1.995557
0.36867091 0.37446904 2.0126235
0.3484042 0.3679994 1.9792315
0.33642149 0.37010562 1.9922363
0.32022277 0.36755532 1.9799136
0.3061502 0.3673248 1.9801071
0.29137811 0.36619332 1.9753351
0.27465028 0.36236873 1.9558395
0.26078644 0.36211988 1.9557166
0.24632603 0.36096922 1.9506165
0.23391324 0.3628602 1.9620209
0.2177636 0.35882896 1.941082
0.18670425 0.32806432 1.7742245
0.14909272 0.28059527 1.5159829
0.13755117 0.27868062 1.5061865
0.1275427 0.27981204 1.5129713
0.11579615 0.27699026 1.4981112
0.10569454 0.27793369 1.5037726
0.095089778 0.27761605 1.5024943
0.084452912 0.27711445 1.5001607
0.074188448 0.27786571 1.5046314
0.063083917 0.27519977 1.4903587
0.052764561 0.27558306 1.49272
0.042498447 0.27650106 1.497961
0.031975038 0.27579784 1.4942816
0.02156058 0.27580893 1.494464
0.011116068 0.27509698 1.4906408
0.00072769111 0.2752791 1.491665
-0.0096869124 0.27581635 1.4945856
-0.02008939 0.27563047 1.4935005
-0.030298425 0.27382323 1.4834925
-0.040930308 0.27578482 1.4940675
-0.051441927 0.27630466 1.4967023
-0.061589532 0.27502373 1.4894354
-0.072156414 0.27571458 1.4929103
-0.08245144 0.27532333 1.4904181
-0.093139403 0.27618495 1.4947294
-0.10362145 0.27632385 1.4950399
-0.11322299 0.27430418 1.4835068
-0.12412592 0.27551171 1.489562
-0.13467966 0.27581728 1.4906396
-0.1451598 0.27593908 1.4906645
-0.15524216 0.27533907 1.4867029
-0.16570838 0.27545249 1.4865862
-0.17675357 0.27645802 1.4912827
-0.18665785 0.27566648 1.486136
-0.19803683 0.27702141 1.4926306
-0.20803136 0.27640092 1.4883202
-0.21811756 0.27595571 1.484918
-0.22950123 0.27711776 1.4902023
-0.24003865 0.27720124 1.4895724
-0.25138691 0.27817491 1.4937216
-0.26364589 0.28003788 1.5026335
-0.31682479 0.32354498 1.7370385
-0.37434012 0.36808491 1.9765795
-0.39015055 0.36989576 1.9846002
-0.40531 0.37098548 1.9886404
-0.41772074 0.36957052 1.9790845
-0.43335333 0.37100539 1.9848398
-0.44500163 0.36904618 1.9722314
-0.46403214 0.37314218 1.9921545
-0.47856733 0.37348849 1.991809
-0.4945302 0.37489724 1.9970928
-0.50696892 0.37363032 1.9879428
-0.52426642 0.37591588 1.9977635
-0.53612465 0.37428376 1.9865285
-0.55072701 0.37460196 1.9856633
-0.56775409 0.37651214 1.993215
-0.5862847 0.37930176 2.0053532
-0.59939742 0.3785367 1.9984664
-0.62020123 0.38255134 2.0169106
-0.63629693 0.38354525 2.0191946
-0.64975405 0.38293988 2.0129178
-0.64874113 0.37401843 1.9625967
-0.67807299 0.38259909 2.0047636
-0.69939125 0.38639441 2.0214837
-0.71478075 0.38682598 2.0203598
-0.72786391 0.38601717 2.0126352
-0.74494469 0.38731864 2.0159163
-0.75244051 0.3836824 1.9932464
-0.7737298 0.38708422 2.0073478
-0.78308004 0.3844977 1.9900714
-0.80389321 0.38753131 2.0020268
-0.82454288 0.39037901 2.0128775
-0.8427462 0.39198881 2.0171721
-0.84648478 0.38693106 1.9868513
-0.87244821 0.39203173 2.0090177
-0.88926172 0.39291924 2.0092838
-0.90250587 0.39222646 2.0013247
-0.9185459 0.39275151 1.9995493
-0.93212175 0.39222291 1.9922887
-0.94648743 0.39203799 1.9867159
-0.96936607 0.39533061 1.9987854
-0.98509872 0.39565319 1.9955987
-0.99468786 0.39353558 1.9799502
-1.0121304 0.39454165 1.980073
-1.0178863 0.391029 1.9572935
-1.063655 0.40276834 2.0112703
-1.0647815 0.39751047 1.9795541
-1.083845 0.39900208 1.9816793
-1.1015671 0.3999657 1.9810474
-1.1246378 0.40281904 1.9897138
-1.1439849 0.4042803 1.9913088
-1.1515621 0.40159836 1.9722739
-1.1794233 0.40596822 1.9880348
-1.202508 0.40860274 1.9950482
-1.2221709 0.41002274 1.995943
-1.2284548 0.40697467 1.9748628
-1.222471 0.39998809 1.9345921
-1.2382121 0.40019357 1.9294076
-1.3042294 0.41644758 2.0018759
-1.2842634 0.40518641 1.9409016
-1.3121496 0.40911013 1.9532779
-1.3336468 0.41097373 1.9555671
-1.4093624 0.42931002 2.0364449
1.4042509 0.40627134 1.9966117
1.4018615 0.41023812 2.0233626
1.3792499 0.40831059 2.0207729
1.3501756 0.40440199 2.008122
1.3289331 0.40277418 2.0067074
1.3297548 0.40787482 2.0390468
1.3121651 0.40738359 2.0432127
1.271515 0.39963245 2.0104747
1.256797 0.39993995 2.0183859
1.2276815 0.39561561 2.0025969
1.21 0.39491236 2.0051169
1.2018626 0.39734605 2.0236301
1.1821481 0.39596602 2.0225055
1.1796228 0.4003835 2.0511799
1.1564782 0.3978273 2.043803
1.1296843 0.39392856 2.029299
1.1003295 0.38901624 2.0093248
1.0964119 0.39308542 2.0360012
1.0683273 0.38848269 2.0173318
1.0722449 0.3955524 2.0596881
1.057322 0.39577737 2.0661511
1.0251914 0.38947192 2.0381041
1.0130484 0.3906838 2.0495424
0.98881543 0.38719872 2.0360436
0.97959012 0.38957325 2.0534935
0.95687318 0.3865726 2.0423074
0.94582897 0.38826689 2.0560141
0.92456508 0.38575274 2.0471768
0.89990181 0.38171303 2.0300243
0.87552643 0.37766069 2.0126302
0.87335157 0.38320994 2.0467327
0.85108864 0.37998492 2.0335655
0.83463174 0.3792834 2.0338826
0.8335641 0.38567671 2.0725143
0.80758673 0.380568 2.0488122
0.79256397 0.38052633 2.0524616
0.77164567 0.37759811 2.0403156
0.75331706 0.37584731 2.0344558
0.73777878 0.37544647 2.0358598
0.72487736 0.37639859 2.0445838
0.70419782 0.37326735 2.030863
0.68091822 0.36859566 2.0085509
0.67921948 0.37565693 2.0506089
0.65467942 0.37011838 2.0233095
0.64440757 0.37257785 2.039964
0.62413746 0.36923671 2.0245368
0.60890412 0.3687872 2.0249808
0.59094441 0.36662444 2.0158513
0.58845812 0.37419301 2.060605
0.56388712 0.36774626 2.0275378
0.54926008 0.36761621 2.0294409
0.53886855 0.37039044 2.0474446
0.51734692 0.36545604 2.0224297
0.50044304 0.36359543 2.0144374
0.48482177 0.36258471 2.0111008
0.47572762 0.36654192 2.0354776
0.46070543 0.36603606 2.0348334
0.4440411 0.36415091 2.0263791
0.42771912 0.36243051 2.0187583
0.40642691 0.35623524 1.9859101
0.39507896 0.35862535 2.0012054
0.38025093 0.35791636 1.9990145
0.36969769 0.36133096 2.019978
0.35108328 0.35682505 1.9962524
0.3372063 0.35695961 1.9986011
0.32253417 0.35622767 1.9959918
0.30582491 0.3530775 1.9796461
0.29306281 0.35440156 1.9885086
0.2782917 0.35330713 1.9836317
0.26553848 0.35479397 1.9932958
0.24740396 0.34885746 1.9608524
0.23354504 0.34860742 1.9605376
0.21382321 0.33903027 1.9072632
0.18044816 0.30509755 1.7156813
0.14867617 0.26924446 1.5129597
0.13760684 0.26826498 1.5080523
0.12628488 0.26658985 1.4991398
0.11599325 0.26698363 1.5019299
0.10519099 0.26616359 1.4977726
0.095189929 0.26741347 1.5053359
0.084213473 0.2658934 1.4970989
0.074122667 0.26713523 1.5045241
0.063274361 0.26560646 1.4961374
0.053026915 0.26649433 1.5014551
0.042543385 0.26634049 1.5007967
0.032008901 0.26566356 1.4971124
0.021611521 0.26602024 1.4992651
0.011193234 0.26654568 1.5023315
0.00072798773 0.26499134 1.4935079
-0.0096908603 0.26550847 1.4964321
-0.020045169 0.26463768 1.4914062
-0.030310769 0.26358986 1.4853258
-0.040706899 0.26392153 1.4870527
-0.051295564 0.26511377 1.4936303
-0.061453626 0.26405367 1.4873402
-0.071950637 0.26454577 1.4898372
-0.082377337 0.26468787 1.4902941
-0.092874326 0.26499864 1.491663
-0.10285521 0.26392251 1.4850981
-0.11334304 0.26422513 1.4863254
-0.12393355 0.26469627 1.4884616
-0.13464653 0.26533595 1.4915053
-0.14484081 0.26493496 1.4885901
-0.15540606 0.26522082 1.4895263
-0.16588317 0.26532978 1.4894096
-0.17625144 0.26526207 1.4882424
-0.18649015 0.26501781 1.4860269
-0.19760385 0.26597708 1.490579
-0.20757535 0.26537985 1.4862682
-0.21820498 0.26564085 1.4867659
-0.22840658 0.26538074 1.4842678
-0.23997952 0.26666719 1.4904557
-0.25067851 0.26691553 1.4907261
-0.26172981 0.26750407 1.4928623
-0.30854538 0.3031908 1.6926746
-0.3752158 0.35501295 1.982918
-0.39011663 0.35589591 1.9861113
-0.40586045 0.35746026 1.9930569
-0.42434251 0.36125121 2.0124166
-0.43602508 0.35919556 1.99888
-0.4499079 0.35902458 1.9958555
-0.46155396 0.35713315 1.9831364
-0.48012462 0.36055338 2.0000629
-0.4937838 0.36019504 1.9957789
-0.50885725 0.36085954 1.9971341
-0.5212453 0.35963526 1.9878889
-0.53556895 0.35977584 1.9861833
-0.54519355 0.35683361 1.9672757
-0.56476045 0.36038309 1.9843627
-0.58459097 0.36392328 2.0012743
-0.60187536 0.36574733 2.0085626
-0.6144051 0.36466441 1.9996856
-0.62508005 0.36255503 1.9850892
-0.62837642 0.35635507 1.9479181
-0.62904406 0.34896678 1.9042419
-0.68334514 0.3710129 2.0222826
-0.69134396 0.36752442 1.9998449
-0.71081221 0.37015119 2.0108714
-0.73113436 0.37310848 2.0235796
-0.74353236 0.3719852 2.0138946
-0.75618047 0.37102789 2.0050583
-0.77085644 0.37108302 2.001667
-0.78839099 0.37248662 2.0055144
-0.80565506 0.37371373 2.0082991
-0.81891984 0.37307489 2.0008962
-0.83476514 0.37361354 1.9997796
-0.86252779 0.37937525 2.0266876
-0.87082732 0.37652609 2.0071342
-0.8832587 0.37552872 1.9974915
-0.90485668 0.37839735 2.0084705
-0.91643947 0.37705281 1.9968175
-0.93703443 0.37939996 2.0047739
-0.94600064 0.37703896 1.9875811
-0.96289474 0.37786171 1.9872407
-0.98503494 0.38068697 1.9973871
-1.0095651 0.38433766 2.011734
-1.0232059 0.38379633 2.0038488
-1.0395012 0.38425201 2.0011287
-1.0613075 0.38670269 2.0087571
-1.0688933 0.38397583 1.9892062
-1.0715632 0.37958342 1.9609776
-1.0962697 0.38301051 1.9733946
-1.1149393 0.38426426 1.9743788
-1.1400247 0.3876662 1.9863378
-1.1460694 0.38458911 1.9647555
-1.17987 0.39078498 1.9907891
-1.1968936 0.3913365 1.9876622
-1.2098409 0.39055809 1.9776493
-1.2247812 0.39043447 1.97091
-1.2318374 0.38783166 1.9515197
-1.2656825 0.39362374 1.9745721
-1.2892096 0.39610589 1.9806761
-1.2955759 0.39331919 1.9601526
-1.3159354 0.39479619 1.9609853
-1.3319523 0.39495113 1.9550916
-1.3334409 0.39084411 1.9279213
1.3985624 0.38874549 1.9904608
1.3716295 0.38563794 1.9813784
1.3781021 0.39195934 2.0210931
1.3451983 0.38709834 2.0026517
1.3473086 0.39231732 2.0366824
1.3248829 0.39043143 2.033524
1.3052224 0.38932437 2.0343177
1.2751284 0.38503945 2.0182061
1.2800783 0.39136159 2.0580657
1.2414625 0.38435569 2.0272169
1.2261547 0.38447893 2.034059
1.1917796 0.37854898 2.0084584
1.206338 0.3882103 2.0661883
1.1776056 0.3840121 2.0496044
1.1448212 0.37836137 2.0249743
1.1362947 0.38068292 2.0432012
1.1172125 0.37948337 2.0423203
1.0814649 0.37250966 2.0099263
1.0778906 0.37657723 2.0374377
1.0703682 0.37936318 2.0579767
1.0358168 0.37251067 2.0256977
1.0242398 0.37383917 2.0380855
1.0060295 0.37275016 2.0371151
0.9964518 0.3748754 2.0537741
0.98078763 0.37474144 2.0579066
0.96553504 0.37476298 2.0628152
0.94371313 0.37219429 2.0532455
0.91481513 0.36670503 2.027261
0.90936053 0.37058681 2.0533748
0.88991302 0.368801 2.0477941
0.86405432 0.36425096 2.0265939
0.8479932 0.36374411 2.0279214
0.83195931 0.36323112 2.0291233
0.82399654 0.36628723 2.0503635
0.80536598 0.36462662 2.044939
0.78650135 0.3627955 2.0384345
0.7729665 0.36339968 2.0456252
0.75393236 0.36139157 2.0379074
0.73804855 0.36084345 2.0383818
0.72056174 0.35947332 2.0340812
0.70509785 0.35907632 2.0352354
0.69499934 0.36145285 2.0521708
0.67392796 0.35810196 2.0362592
0.65853769 0.35768816 2.037065
0.64523554 0.35841542 2.0443463
0.63100165 0.3586469 2.0487111
0.61138505 0.35575724 2.0350163
0.59088868 0.3522025 2.0173616
0.57765639 0.35290819 2.0242007
0.56357312 0.35311675 2.0281005
0.54946548 0.3533206 2.031904
0.53458655 0.35302615 2.0327468
0.52045137 0.35322013 2.0363507
0.50251865 0.35077444 2.0245345
0.48660976 0.34963924 2.0202441
0.47613001 0.35245433 2.038893
0.45612627 0.34817502 2.0161128
0.43771702 0.34487656 1.9989396
0.42666486 0.34734812 2.0153935
0.408739 0.34420133 1.998927
0.39371389 0.3433601 1.9958626
0.3800306 0.34367016 1.9994718
0.36578858 0.34347931 2.0000775
0.34782943 0.33964363 1.9792092
0.33717307 0.3429164 2.0000174
0.32187817 0.34155086 1.9935068
0.30788383 0.34150416 1.994681
0.29174995 0.33896723 1.9811218
0.27581778 0.33642352 1.9674373
0.26370415 0.33851489 1.9810046
0.24737749 0.33513018 1.9622079
0.23363569 0.33505583 1.9628699
0.21488655 0.32734436 1.9183525
0.1830724 0.29738644 1.7422432
0.14873409 0.25877833 1.514761
0.13721731 0.25700694 1.5049366
0.12690732 0.25738955 1.5078021
0.11633901 0.25727007 1.5076489
0.1055738 0.25664818 1.5044719
0.094734736 0.25568983 1.4992514
0.084520325 0.25638884 1.5038003
0.07410372 0.25658551 1.5053263
0.063175544 0.25478381 1.4949588
0.052841168 0.25513852 1.4973248
0.042311352 0.25449196 1.4937073
0.031917233 0.25450626 1.4939604
0.021577833 0.25518149 1.4980865
0.011132231 0.25468907 1.49524
0.00072922435 0.25502384 1.4972526
-0.0096504558 0.25402465 1.4913057
-0.020131679 0.25534886 1.4990925
-0.030362463 0.25367677 1.4890606
-0.040722873 0.25366306 1.4888182
-0.05101442 0.25331295 1.486534
-0.061477721 0.25378999 1.4891065
-0.071743608 0.25343198 1.4866819
-0.082355775 0.25423321 1.4910803
-0.093031883 0.2550303 1.4954042
-0.1034345 0.25499263 1.494734
-0.11353564 0.25428659 1.4900596
-0.12357728 0.25357684 1.4853185
-0.13426057 0.25419173 1.488369
-0.14489725 0.25463641 1.4903626
-0.15516289 0.25441313 1.4883577
-0.16594765 0.25501558 1.4911846
-0.17620514 0.25478452 1.4890376
-0.18656245 0.25471553 1.4878
-0.19755214 0.25547159 1.4913808
-0.2081953 0.25572613 1.4919512
-0.21814753 0.2551482 1.4875672
-0.2289397 0.25556064 1.4889684
-0.23991679 0.25613448 1.4912664
-0.25126019 0.25703511 1.4954309
-0.26199865 0.25726947 1.4956242
-0.30288264 0.2859455 1.6626757
-0.36681172 0.33344048 1.9397355
-0.38800305 0.34007573 1.9768767
-0.40542939 0.34306645 1.9925495
-0.41864991 0.34241736 1.9868385
-0.43452242 0.34390917 1.9935728
-0.45352048 0.34770378 2.0136602
-0.46727261 0.34736818 2.0095546
-0.4766514 0.34389707 1.9871253
