# .PCD v0.7 - Point Cloud Data file format
VERSION 0.7
FIELDS x y z
SIZE 4 4 4
TYPE F F F
COUNT 1 1 1
WIDTH 1491
HEIGHT 1
VIEWPOINT 0 0 0 1 0 0 0
POINTS 1491
DATA ascii
0.62076837 0.51137364 1.9925126
0.60505068 0.5102734 1.9911352
0.58472717 0.50514048 1.9737917
0.52482116 0.46470323 1.8171002
0.46400341 0.42136782 1.6484612
0.443988 0.41378236 1.6206573
0.431326 0.41282567 1.6189599
0.41895226 0.41209942 1.6181083
0.40614328 0.41089153 1.6152796
0.3945365 0.41086459 1.6170743
0.38137451 0.4091675 1.6121676
0.37109643 0.41055509 1.6194724
0.35865211 0.40955836 1.617227
0.34424043 0.406174 1.605389
0.33352503 0.4070681 1.6105574
0.32181254 0.40676561 1.6108924
0.31047621 0.40693375 1.6130528
0.29860041 0.40638068 1.6122698
0.28725696 0.40653685 1.6142707
0.27347216 0.40310732 1.6018317
0.26158276 0.40229553 1.5998268
0.2510722 0.4036268 1.606373
0.23849732 0.40160823 1.5994036
0.22657283 0.40053836 1.5961862
0.21637543 0.40256959 1.6053946
0.20399074 0.40053087 1.5981636
0.19298343 0.40111616 1.6014464
0.18139869 0.40049946 1.5998307
0.17025261 0.40083367 1.6019963
0.15908538 0.40116203 1.6040866
0.14798562 0.40172386 1.6070678
0.13620055 0.40036422 1.6022346
0.12471423 0.3997165 1.6002219
0.11319466 0.39882296 1.5971608
0.10196879 0.39888132 1.597895
0.090629265 0.39845443 1.5966139
0.079599075 0.39945909 1.6010729
0.068757251 0.40189585 1.6112777
0.057469014 0.40216985 1.6126789
0.047786858 0.41657943 1.6712601
0.036296472 0.41947863 1.6831937
0.025299614 0.4336381 1.7406746
0.013171869 0.43676487 1.7534263
0.00086690963 0.43940565 1.7641536
-0.011461062 0.43724525 1.7553797
-0.023810329 0.43771508 1.7572011
-0.037353437 0.45232069 1.8162057
-0.05076316 0.45828918 1.8401695
-0.063542448 0.45729938 1.8358978
-0.076505132 0.4577406 1.8373601
-0.08925727 0.45697659 1.8338847
-0.093342811 0.4176296 1.6742513
-0.094005182 0.37349427 1.4952773
-0.10404772 0.37176362 1.4878198
-0.1144338 0.37146488 1.4861058
-0.12464012 0.37068161 1.4823862
-0.13637088 0.37420255 1.4960048
-0.14669968 0.37364715 1.4931052
-0.15629002 0.37141123 1.4833766
-0.16736357 0.37275955 1.4880639
-0.17805359 0.37314481 1.488814
-0.1894875 0.37495908 1.4952701
-0.19859669 0.37222454 1.4833519
-0.20889199 0.37187597 1.4809984
-0.22113767 0.37486693 1.4920262
-0.23133294 0.37426782 1.4885607
-0.24210835 0.37461859 1.4888623
-0.25370458 0.37615705 1.4938766
-0.26487991 0.37697306 1.4959339
-0.27505088 0.37635195 1.4921775
-0.28482118 0.37524903 1.4864459
-0.29583886 0.37580964 1.4873227
-0.30843717 0.37827003 1.4957328
-0.31996259 0.3792941 1.49834
-0.37759894 0.43314618 1.7115058
-0.43886286 0.48765597 1.9267873
-0.45989203 0.49550471 1.9559015
-0.47634968 0.49811041 1.9640424
-0.48803392 0.49571836 1.9522521
-0.50414646 0.49783239 1.958279
-0.5127123 0.49258143 1.9350526
-0.52706516 0.49302059 1.9343109
-0.55365723 0.50459188 1.97746
-0.56914902 0.50572026 1.9792279
-0.58469468 0.50684017 1.9808781
-0.5941422 0.50274658 1.961938
-0.61222517 0.50598061 1.9717497
-0.58571398 0.47305113 1.8396378
-0.59955508 0.47345239 1.8383534
-0.61249286 0.47313845 1.8341993
-0.6787433 0.51314336 1.9873401
-0.69081742 0.51137495 1.9771278
-0.70733172 0.51289868 1.979669
-0.71530855 0.50829458 1.9583198
-0.73855203 0.5145067 1.9788836
-0.76556057 0.52305204 2.0083117
-0.77760834 0.5212459 1.9975649
-0.79418314 0.52248514 1.9985045
-0.80790943 0.5218392 1.9920965
-0.81088054 0.51439369 1.9595146
-0.83634758 0.52122986 1.9816908
-0.86331463 0.52874857 2.0062909
-0.86660975 0.52175999 1.9753393
-0.88134801 0.52177918 1.9711037
-0.89887774 0.52342337 1.9729617
-0.92258304 0.52855235 1.9879214
-0.94159102 0.53087008 1.9920818
-0.95022833 0.52735966 1.9741343
-0.97525197 0.53291142 1.9902762
-0.98113793 0.527996 1.966938
-1.0046896 0.53259206 1.9792329
-1.0258045 0.53578019 1.9861013
-1.049769 0.54034245 1.9979481
-1.0475163 0.53147268 1.9597077
-1.0794233 0.53993994 1.9858192
-1.0906979 0.5379948 1.9731926
-1.1227046 0.54618901 1.9978989
-1.1344815 0.54445297 1.985854
-1.1553799 0.54708236 1.9897639
-1.17 0.54670882 1.9825617
-1.1880634 0.5479331 1.981108
-1.1960955 0.54455882 1.9628407
-1.2197263 0.54828197 1.9702712
-1.2337329 0.54763979 1.9617771
-1.2737416 0.55841279 1.9942998
-1.2916131 0.55933642 1.9911591
-1.2956542 0.55432069 1.9666779
-1.3198789 0.5579567 1.9730679
-1.3355522 0.5579347 1.9662975
-1.3517464 0.55812836 1.9602109
-1.3745893 0.5610311 1.9635957
1.4008148 0.54842848 1.9700534
1.3884102 0.54981494 1.9821124
1.3670888 0.54766154 1.981221
1.3780243 0.55853164 2.0278378
1.3678645 0.56100839 2.043833
1.3217816 0.54863411 2.0051124
1.3095852 0.55019498 2.0174978
1.2863144 0.54708427 2.012521
1.2719616 0.54773617 2.021379
1.2555078 0.54748857 2.026814
1.2380347 0.54678416 2.0304508
1.2250656 0.54807663 2.0414817
1.1863756 0.53774458 2.008703
1.1769435 0.54057568 2.0253034
1.1606063 0.54026872 2.0300026
1.1380904 0.53703791 2.0235107
1.1157281 0.53379089 2.0168056
1.1032436 0.53524476 2.0278952
1.0856365 0.53421938 2.0294421
1.0563447 0.52733123 2.0083849
1.04342 0.52853125 2.018229
1.0295358 0.52927381 2.0262501
1.0125673 0.52842933 2.0280654
0.98965949 0.52441156 2.0174818
0.96569449 0.51969951 2.0040431
0.96143264 0.52560967 2.0318093
0.93970275 0.52200663 2.0224626
0.93502522 0.52791339 2.0501797
0.90549374 0.51975077 2.0227463
0.88534886 0.51679075 2.0155385
0.87837255 0.52154791 2.0385926
0.85680932 0.51765883 2.0275226
0.83804107 0.51534969 2.0225577
0.82230055 0.51485246 2.0246561
0.80049539 0.5104695 2.0112405
0.77646315 0.50447434 1.9912664
0.77241766 0.51148385 2.0229514
0.74663788 0.50409395 1.9971718
0.74318719 0.51178545 2.0315289
0.71876895 0.50505722 2.0081427
0.70014739 0.50220686 2.0001509
0.68198907 0.49957475 1.9929219
0.67347163 0.504044 2.0141773
0.64488798 0.49336013 1.9743025
0.63245881 0.49483058 1.9833132
0.61850232 0.49514657 1.9875978
0.60199356 0.49338582 1.9833995
0.58091557 0.48770323 1.9631964
0.55560136 0.47809175 1.9268953
0.49348637 0.4355109 1.7562946
0.4447265 0.40278885 1.6253282
0.4315491 0.40139776 1.6217453
0.41796198 0.39953789 1.6161754
0.40353534 0.39674652 1.6067206
0.39017537 0.39487082 1.6009294
0.38090789 0.39714864 1.6120846
0.37042943 0.39826655 1.6184449
0.35529482 0.39428923 1.6038336
0.34401667 0.39446944 1.6062232
0.33272341 0.39464411 1.6085355
0.32141551 0.39481327 1.6107705
0.30936548 0.39404958 1.6091055
0.29823151 0.39443895 1.6121368
0.28555301 0.39273512 1.6064717
0.27329242 0.39148834 1.6026287
0.26265293 0.39255631 1.6082975
0.25075912 0.39176148 1.6062076
0.23890756 0.39096028 1.6040326
0.22791034 0.39154705 1.6075519
0.21623325 0.39096606 1.6061772
0.20348997 0.38828635 1.5960357
0.19216505 0.3881577 1.596421
0.18084483 0.38802305 1.5967281
0.17054681 0.39020938 1.6066294
0.15917031 0.39006346 1.6067871
0.14674112 0.38711819 1.5952444
0.13602889 0.38858962 1.6020225
0.12463146 0.38819271 1.6009732
0.11291517 0.3866252 1.5949947
0.10183962 0.38714784 1.5976682
0.091114096 0.38929552 1.6070638
0.080167331 0.39097169 1.614446
0.071296521 0.40499255 1.673251
0.061166432 0.41598013 1.7193749
0.048170153 0.40808535 1.6867007
0.037187554 0.41766363 1.7268506
0.025243245 0.42047712 1.7387315
0.01313555 0.42328432 1.7505313
0.00087447348 0.43074685 1.7816976
-0.011957599 0.44333073 1.8341727
-0.02493209 0.44541869 1.8427985
-0.037947875 0.44656739 1.8474454
-0.05076386 0.44537854 1.8422818
-0.062843502 0.43952203 1.8175937
-0.071857251 0.41781414 1.7267588
-0.076239541 0.37932745 1.5659544
-0.082837276 0.3601802 1.4857742
-0.093633257 0.36153132 1.4909968
-0.10376808 0.36031452 1.4854714
-0.11442123 0.36095554 1.4876364
-0.12478736 0.36065948 1.4858506
-0.13557078 0.36152208 1.4888376
-0.1461198 0.36168063 1.4888446
-0.15657489 0.36160097 1.4878116
-0.16702282 0.36151585 1.4867071
-0.17757741 0.36165795 1.486497
-0.18825822 0.36202699 1.4871792
-0.19857453 0.36169311 1.484894
-0.20886846 0.36135399 1.4825393
-0.22040877 0.36310053 1.4887766
-0.23130767 0.36367935 1.4901199
-0.24146436 0.36309168 1.4865838
-0.25158358 0.36249903 1.4829806
-0.26317441 0.36398932 1.4879336
-0.27484682 0.36547318 1.4927989
-0.28515187 0.36509606 1.4899298
-0.29805872 0.36795792 1.5003544
-0.30704409 0.36594817 1.4906563
-0.31952709 0.36810204 1.4980409
-0.33233607 0.37048006 1.5062761
-0.40567788 0.43807623 1.7820288
-0.45681959 0.47832191 1.9450297
-0.47386867 0.48155004 1.9560494
-0.49062684 0.48430619 1.9650397
-0.50296444 0.48266673 1.9559803
-0.51717818 0.48286775 1.954375
-0.52581555 0.47798902 1.9320016
-0.54249454 0.48048326 1.9396091
-0.55263907 0.47720999 1.9236835
-0.58362913 0.49165732 1.9796301
-0.59864342 0.49227825 1.979315
-0.61024916 0.49013257 1.967726
-0.58806306 0.46156195 1.8493316
-0.59806663 0.4589659 1.835996
-0.61341697 0.46049678 1.8392458
-0.67159957 0.49343184 1.9686823
-0.69085091 0.496986 1.9796665
-0.70834172 0.49915439 1.9849743
-0.71865422 0.49627876 1.9699979
-0.72913337 0.49362892 1.9558879
-0.74255079 0.49303204 1.9499247
-0.76748914 0.49996275 1.9738455
-0.79458553 0.50801611 2.0020447
-0.8057766 0.50579244 1.9893092
-0.82274342 0.50720888 1.99093
-0.83451623 0.5054298 1.9798356
-0.84732413 0.50432825 1.9713608
-0.85889369 0.50253958 1.9601252
-0.87548077 0.50369728 1.9603993
-0.89131647 0.50439185 1.9587628
-0.92345619 0.51414132 1.992397
-0.94247997 0.51639462 1.9965712
-0.9569993 0.51614791 1.9909071
-0.96936226 0.51476377 1.9807562
-0.98638266 0.5158574 1.9801362
-1.0038847 0.51716644 1.9802461
-1.0183338 0.51688731 1.9741373
-1.0512012 0.52582943 2.003356
-1.0580816 0.52170259 1.9822712
-1.0790477 0.52453923 1.9877824
-1.0945299 0.52466834 1.982842
-1.1246992 0.53173769 2.0041771
-1.1403422 0.53184092 1.9988962
-1.1520817 0.53014523 1.9867376
-1.1651865 0.52911419 1.9770366
-1.1817014 0.52963817 1.9731156
-1.202253 0.53193492 1.9757373
-1.222394 0.53399402 1.9773386
-1.2317922 0.53136742 1.9613795
-1.2770084 0.54406589 2.002233
-1.2891203 0.54252255 1.9900585
-1.2947298 0.53831285 1.968015
-1.2941676 0.53166807 1.9370506
-1.2877895 0.52281857 1.8981005
-1.353007 0.5429033 1.9648294
-1.3691989 0.54308045 1.9586127
1.4054723 0.53429341 1.9793887
1.3846647 0.5324288 1.979448
1.373299 0.53419375 1.993024
1.367813 0.53831416 2.0154505
1.3421046 0.53447914 2.0077865
1.319245 0.53170007 2.0039532
1.3081318 0.53364515 2.0179689
1.2880061 0.5319162 2.0179055
1.2762161 0.53362954 2.0309167
1.2551142 0.53144348 2.0288861
1.2356229 0.52989191 2.0291681
1.2057135 0.52377445 2.0116599
1.1810479 0.51980394 2.0022607
1.1819124 0.52711374 2.0366018
1.1631062 0.52572966 2.0370815
1.1434057 0.52389801 2.0356948
1.1148716 0.51791185 2.0178742
1.1019353 0.51910502 2.0281043
1.0802289 0.51614195 2.0218709
1.0780654 0.52256602 2.0526426
1.0461581 0.51454937 2.0261664
1.0282863 0.5133 2.0263636
1.0178249 0.51576787 2.0412767
1.0020905 0.51559842 2.0456131
0.98719054 0.5158599 2.05159
0.96646142 0.51303524 2.0450943
0.94016385 0.50711602 2.0260065
0.92704546 0.508228 2.0350974
0.90831184 0.50624746 2.0316222
0.89668542 0.50822806 2.0440826
0.87075913 0.50203234 2.0232933
0.84554935 0.49603987 2.0031457
0.83326596 0.49755213 2.0134201
0.82306939 0.50038797 2.0290484
0.80804676 0.50034052 2.0328393
0.78844577 0.49740282 2.0246964
0.76209879 0.49001479 1.9981426
0.75107187 0.49238083 2.0115538
0.73524469 0.49163166 2.0120757
0.71977651 0.49109682 2.0133955
0.70816386 0.49322501 2.025651
0.69297397 0.4928993 2.0276875
0.67227268 0.48855421 2.0129561
0.65511644 0.48664972 2.0082402
0.64276189 0.48830655 2.0182564
0.63087672 0.49040526 2.0300617
0.60032862 0.47775152 1.980196
0.58724028 0.47871459 1.987064
0.56123507 0.46893314 1.9488641
0.52246976 0.44771662 1.8625176
0.45539233 0.40048692 1.6666142
0.4335033 0.39152125 1.6310492
0.41938058 0.38926709 1.6235896
0.40585414 0.38745362 1.6179068
0.3937991 0.38697961 1.6178011
0.38043535 0.38515201 1.6119143
0.36760423 0.38376647 1.6078234
0.35630983 0.38394767 1.6102973
0.34499973 0.38412344 1.6126933
0.33289298 0.38339385 1.6111937
0.31912625 0.38063228 1.6010029
0.30788493 0.38079017 1.6031444
0.29610384 0.3802669 1.6023341
0.28637445 0.38244188 1.6129539
0.27391902 0.38100582 1.6081463
0.26247722 0.38091627 1.6090168
0.25103697 0.38082099 1.6098074
0.23903075 0.37981731 1.6066639
0.2274867 0.37948459 1.6063282
0.2166023 0.3802751 1.6107398
0.20383912 0.37767205 1.6005816
0.1926102 0.37777334 1.6019349
0.18115561 0.37741694 1.6012753
0.17012663 0.37795892 1.604411
0.15839787 0.37691265 1.6006864
0.14708231 0.37676486 1.6007591
0.13658898 0.37887323 1.6104608
0.1246216 0.37690443 1.6026137
0.11304211 0.37583426 1.5985674
0.10195407 0.37634212 1.6012448
0.093071111 0.38612407 1.6437209
0.083220646 0.39409164 1.6783671
0.072852395 0.4018285 1.7119828
0.060135588 0.39710847 1.6919969
0.049378909 0.4061932 1.7313128
0.037975237 0.41414052 1.7656912
0.025802471 0.41732717 1.7795434
0.013366773 0.41824299 1.7835727
0.00090049737 0.43070126 1.8371927
-0.012077078 0.4347744 1.854687
-0.025075667 0.43499118 1.855534
-0.03796773 0.43384278 1.8504496
-0.048371825 0.41208357 1.7566742
-0.056342032 0.38262296 1.6297522
-0.062151119 0.35089701 1.4930788
-0.072109319 0.34837231 1.4819169
-0.082451656 0.34810609 1.4804167
-0.093199223 0.34941879 1.4856516
-0.10375509 0.34982076 1.4869237
-0.11448085 0.35066965 1.4900649
-0.12493296 0.35060817 1.489248
-0.13590337 0.35189831 1.4941807
-0.14600763 0.35092145 1.4893392
-0.15665621 0.35129601 1.4902445
-0.16689442 0.3507612 1.4872034
-0.17709814 0.35022128 1.4840937
-0.18823473 0.35148352 1.488649
-0.19791113 0.35002983 1.4815336
-0.20924513 0.35150665 1.4869012
-0.2193937 0.35094607 1.4835089
-0.23142682 0.35331371 1.4925679
-0.24097069 0.35184035 1.4851803
-0.25235736 0.35306829 1.4892641
-0.26381287 0.35429022 1.4932634
-0.27463868 0.35460484 1.4933429
-0.28402972 0.35311234 1.485687
-0.29595748 0.35476747 1.4913598
-0.30681175 0.35506594 1.4912115
-0.31788015 0.355584 1.4919398
-0.32814357 0.35519713 1.4887797
-0.34909433 0.36604068 1.5330794
-0.42965892 0.43683517 1.8305668
-0.47251594 0.4662492 1.9526625
-0.48549068 0.46533722 1.9465469
-0.50297737 0.46868032 1.9582901
-0.51620251 0.46797886 1.9529177
-0.53876871 0.47555971 1.9822738
-0.54693186 0.47036424 1.9578775
-0.56599158 0.47456545 1.9728357
-0.58337444 0.47718975 1.981077
-0.59194535 0.47265285 1.9592961
-0.58678436 0.45761803 1.893702
-0.58044863 0.44237247 1.8273451
-0.59507138 0.44342291 1.828891
-0.6546976 0.47723222 1.9663924
-0.66818595 0.47668585 1.9609345
-0.68768781 0.48036277 1.9728909
-0.69796425 0.47757703 1.958017
-0.7090646 0.47545528 1.945847
-0.73726463 0.48465779 1.980263
-0.74188429 0.47830322 1.9505242
-0.76716608 0.48525831 1.9754099
-0.77605724 0.48178005 1.9573896
-0.80580974 0.49114347 1.99183
-0.81945181 0.49052835 1.9853421
-0.8277837 0.48681188 1.9661629
-0.84162498 0.48640782 1.9604235
-0.86397713 0.4908528 1.9742688
-0.89525241 0.50013435 2.0075219
-0.89736766 0.4930883 1.974635
-0.90558594 0.48956922 1.9559984
-0.9313677 0.49550602 1.9753376
-0.9578886 0.50164419 1.995294
-0.97196692 0.50117749 1.9886433
-0.98298043 0.49916863 1.9757693
-1.0043783 0.50241423 1.983763
-1.0290499 0.50717789 1.9976364
-1.0535197 0.51170522 2.0103972
-1.0604281 0.50769544 1.989273
-1.0754188 0.50761348 1.9836192
-1.0983492 0.51122946 1.9924093
-1.1072285 0.50829583 1.9753877
-1.1212114 0.50775278 1.9676855
-1.1361173 0.50763667 1.9615771
-1.1431198 0.50403863 1.9418699
-1.1852791 0.51583451 1.9817652
-1.2023488 0.51654875 1.9785305
-1.2245352 0.51941526 1.9834801
-1.2556239 0.52593887 2.0023103
-1.2750417 0.52747309 2.0018203
-1.2802744 0.52317333 1.9789709
-1.3055165 0.52705532 1.987234
-1.3099171 0.52253097 1.9634831
-1.3314826 0.52487981 1.9657084
-1.3569998 0.52871358 1.9733784
-1.3648933 0.5256716 1.9550949
1.4067347 0.51880038 1.9838362
1.4143291 0.52759171 2.0248854
1.3960412 0.52682024 2.0289803
1.385409 0.52895361 2.0442829
1.3395232 0.51751775 2.0065429
1.3145475 0.5139823 1.9993917
1.3034852 0.51586699 2.0133836
1.2912477 0.51732737 2.0256665
1.2571931 0.50997412 2.0030193
1.2470348 0.51225114 2.0183413
1.2326847 0.51284236 2.0269222
1.214784 0.51195264 2.0295188
1.190498 0.50831312 2.0209942
1.1732203 0.50760889 2.0240943
1.1607765 0.50900525 2.0355589
1.1391999 0.50638038 2.0307229
1.1215088 0.50543374 2.0325444
1.1006091 0.50299406 2.0281954
1.0848616 0.50287294 2.0331552
1.0654931 0.50104558 2.0310602
1.0439862 0.49814424 2.0244455
1.023508 0.4956544 2.0193775
1.0005592 0.49187478 2.0088682
1.0000072 0.49915838 2.0438416
0.96831149 0.49088126 2.0145292
0.95324486 0.49090526 2.0193818
0.94714385 0.49562165 2.0436478
0.9319095 0.49563491 2.0483382
0.91230685 0.49328667 2.043092
0.89282793 0.49092692 2.037674
0.87079114 0.48705527 2.0257969
0.864048 0.49175194 2.0497551
0.84107733 0.48721594 2.0348611
0.82382691 0.48588887 2.0333414
0.80843318 0.4856281 2.0362251
0.79058141 0.48385316 2.0326164
0.77351415 0.48249936 2.0306866
0.75888872 0.48264551 2.0350299
0.7329374 0.47545052 2.0080543
0.71914399 0.47600973 2.0139527
0.70306933 0.47505081 2.0132992
0.68798178 0.47473234 2.015296
0.67106277 0.47310877 2.0116205
0.65903753 0.47493991 2.0226722
0.63043463 0.4646363 1.9815201
0.61594892 0.46450019 1.9839237
0.60230553 0.46500799 1.9890279
0.58752578 0.46464178 1.9902927
0.56793767 0.46035987 1.9745538
0.55304247 0.45975995 1.9746302
0.49689522 0.42393383 1.8219553
0.43023965 0.37696752 1.6204722
0.41837755 0.37673703 1.6214843
0.40393728 0.37410563 1.6119916
0.39284998 0.37451625 1.6156633
0.37951297 0.37274215 1.6097564
0.37101546 0.37575877 1.6246856
0.35565102 0.37179098 1.6090691
0.3439579 0.37152493 1.6095511
0.33305806 0.37212682 1.6137747
0.32136163 0.37184989 1.6140964
0.31004184 0.37200445 1.6162527
0.29677781 0.36974853 1.6077728
0.28516662 0.36945403 1.607839
0.27275857 0.36805978 1.6030126
0.26214206 0.36906701 1.6086897
0.25190672 0.37072638 1.6171913
0.23986113 0.36975276 1.6140457
0.22895488 0.37052593 1.6185431
0.2158104 0.36756805 1.6065274
0.20479558 0.36811078 1.6098982
0.19224627 0.36579728 1.6006004
0.17983612 0.3634772 1.5912091
0.16868557 0.3635639 1.5923984
0.15819275 0.36518133 1.6003082
0.14698011 0.36525744 1.6013497
0.13600548 0.36598668 1.6052312
0.12431058 0.36473426 1.6002845
0.11412085 0.36808795 1.6156927
0.10617685 0.38022327 1.6699835
0.095847517 0.38576558 1.6950191
0.084936805 0.39020479 1.7151206
0.073874988 0.39529824 1.7380772
0.061572574 0.3944532 1.73464
0.050312798 0.40151358 1.7662239
0.038908601 0.41164556 1.8113903
0.025899651 0.406387 1.7882019
0.013417024 0.40727606 1.792238
0.00087963988 0.40815878 1.7961888
-0.011686746 0.4081561 1.796152
-0.024997018 0.42067501 1.8516306
-0.035825998 0.39714271 1.7470535
-0.042546324 0.35162961 1.5449033
-0.051667575 0.3403981 1.4948516
-0.062022254 0.33971041 1.4915392
-0.072474129 0.33967671 1.4910804
-0.082815371 0.33919841 1.4886019
-0.09348812 0.34003294 1.4918959
-0.10407631 0.34042284 1.493169
-0.11453892 0.34036818 1.4924231
-0.12491559 0.34008875 1.4906334
-0.13562261 0.34068233 1.4926602
-0.14626972 0.34105101 1.4936411
-0.15683623 0.34119496 1.4935776
-0.16794696 0.3424305 1.4982896
-0.17707309 0.33971259 1.4854801
-0.18784539 0.34027991 1.4871404
-0.19801067 0.33974573 1.483888
-0.20867793 0.34008327 1.4844334
-0.21908031 0.3399775 1.4829737
-0.23065561 0.34161854 1.4891579
-0.24140032 0.34193996 1.4894742
-0.2516773 0.34159961 1.486828
-0.26243332 0.34191075 1.4869963
-0.27337888 0.34243524 1.4880486
-0.28471467 0.34339148 1.4909401
-0.29497707 0.34303099 1.4880021
-0.30560219 0.34310269 1.4869078
-0.31662935 0.34360582 1.4876491
-0.32789013 0.34432176 1.4892641
-0.33940387 0.34525022 1.4917485
-0.37218606 0.36710006 1.5854031
-0.45658785 0.43707556 1.8884194
-0.49298912 0.45841074 1.9790536
-0.50057536 0.45251015 1.9510436
-0.51422894 0.45226526 1.9475737
-0.52532125 0.4498401 1.9345851
-0.5386039 0.44936699 1.9300047
-0.56039351 0.45583731 1.9553795
-0.56396574 0.44753504 1.9168266
-0.59223276 0.45875797 1.9624845
-0.60483271 0.45760465 1.95465
-0.57721347 0.4267675 1.8191555
-0.60823637 0.43969548 1.8718405
-0.657767 0.46514854 1.9779589
-0.6719442 0.46504897 1.9743289
-0.68164229 0.46191829 1.9576786
-0.69407159 0.46072853 1.9492754
-0.71205825 0.46320149 1.9564078
-0.73491389 0.46868259 1.976211
-0.74258411 0.46445474 1.9546726
-0.76823485 0.47142014 1.9805152
-0.78857124 0.47492665 1.9915539
-0.79419994 0.46960884 1.965241
-0.80394167 0.4668698 1.9497936
-0.82065666 0.46820533 1.9514325
-0.84890932 0.47596371 1.9798971
-0.86322302 0.47577614 1.9749075
-0.87593299 0.47472566 1.9662409
-0.88776618 0.47324219 1.9557118
-0.90642482 0.47538641 1.9602079
-0.93057066 0.48029459 1.9760454
-0.94113427 0.4781487 1.9625292
-0.95965183 0.48004764 1.9656681
-0.98993051 0.48768312 1.9923061
-1.0013516 0.48593909 1.980191
-1.0073239 0.48164111 1.9575695
-1.0450143 0.49241355 1.996533
-1.0618482 0.4931908 1.9944547
-1.0791715 0.49417028 1.9931003
-1.1012186 0.49725541 2.0001783
-1.1215237 0.49948025 2.0036278
-1.0890684 0.47846538 1.9132671
-1.1342312 0.49165666 1.9607971
-1.1441634 0.48943019 1.9461497
-1.194824 0.50445718 2.0004194
-1.2125138 0.50535673 1.9979652
-1.2220676 0.50288558 1.9820186
-1.2268153 0.49852324 1.9585624
-1.2563504 0.50421673 1.9748255
-1.2772055 0.50633019 1.9767785
-1.2917498 0.50592107 1.9687037
-1.2943805 0.50091124 1.9425751
-1.3250526 0.50674337 1.9587343
-1.3328851 0.50380671 1.9406153
-1.3778123 0.51479757 1.9763812
1.3938959 0.4982383 1.9681414
1.3776538 0.49808827 1.9745293
1.3707728 0.50135863 1.9945446
1.350572 0.49977681 1.9950496
1.3347569 0.49979958 2.0019064
1.3451104 0.50973976 2.0488431
1.3204962 0.5065093 2.0424502
1.2960415 0.50326127 2.0358164
1.2733005 0.50060576 2.0314376
1.2491548 0.49732387 2.0243378
1.2322519 0.49687836 2.0287406
1.2163517 0.49683088 2.0346909
1.1846374 0.49023783 2.0134671
1.1849834 0.49691328 2.0470724
1.1603535 0.49315423 2.0373199
1.1568542 0.49839565 2.0649641
1.1112274 0.48538151 2.0162337
1.0895292 0.48259994 2.0100691
1.0656887 0.47877675 1.9993759
1.0569564 0.48172855 2.0171013
1.0404608 0.48117685 2.0199888
1.0239812 0.48061627 2.0227442
1.01315 0.48272994 2.0367744
1.0013233 0.48442692 2.0489905
0.9775964 0.48032996 2.0364084
0.97151494 0.48491031 2.0608153
0.93655354 0.47499129 2.0230064
0.92630684 0.47748715 2.0383213
0.90164107 0.4725098 2.0213883
0.87843132 0.46813986 2.0069056
0.87656218 0.47518823 2.041693
0.84483558 0.46601421 2.0061548
0.84035426 0.47180945 2.0354428
0.82420874 0.47114757 2.0366287
0.8063007 0.46943498 2.0331388
0.78180051 0.46374756 2.0121627
0.77214622 0.46681711 2.0293734
0.76195443 0.46967551 2.0456285
0.73460943 0.46186355 2.0149436
0.71980554 0.46177873 2.0180886
0.70307773 0.46043041 2.0155826
0.6964528 0.46578154 2.0425806
0.67321891 0.46001595 2.0203826
0.65093195 0.45465589 1.9998251
0.6416105 0.45831409 2.0191536
0.6240027 0.45608559 2.0122848
0.60230827 0.45069331 1.9912266
0.58121389 0.44549829 1.9709058
0.57222646 0.44955558 1.9917578
0.55774957 0.44939744 1.9937407
0.52619398 0.43510869 1.9323927
0.45478544 0.38620573 1.7156624
0.41640037 0.36341241 1.6154975
0.40295362 0.36170462 1.6097667
0.39212292 0.36231384 1.6143831
0.38058263 0.36228433 1.6160724
0.36839256 0.36161521 1.6148211
0.35665694 0.36136338 1.6153901
0.34412321 0.36025941 1.6120507
0.33380505 0.36147863 1.6191508
0.32132766 0.36036325 1.6156387
0.30800462 0.35818201 1.6072333
0.29674575 0.35832596 1.609298
0.28564262 0.35867694 1.6122485
0.27418885 0.3585985 1.6131967
0.26226947 0.35787788 1.6111711
0.249052 0.35524049 1.600368
0.24040452 0.3591806 1.619432
0.22649285 0.35525644 1.6026475
0.2152721 0.35536271 1.6041554
0.20379744 0.35503846 1.6036472
0.19234046 0.35470876 1.6030594
0.18111873 0.35479891 1.6043338
0.16917579 0.35339445 1.5987291
0.15865096 0.35496324 1.6066526
0.14740591 0.35503739 1.6076969
0.1368071 0.35680929 1.6164539
0.12676792 0.36049277 1.6339102
0.12030835 0.3760981 1.7058878
0.10862264 0.3770057 1.7105688
0.096877836 0.37790769 1.7151711
0.08631853 0.38434342 1.7450672
0.07407584 0.38416937 1.7446384
0.061740302 0.38335013 1.7411965
0.051632639 0.39936021 1.8148245
0.038699232 0.39682487 1.8034117
0.026304869 0.40003756 1.8182867
0.013930764 0.40985131 1.8633647
0.00091040647 0.40942869 1.8614612
-0.012082913 0.40899971 1.8594692
-0.022696609 0.37020156 1.6815399
-0.030765703 0.33054745 1.4996554
-0.040917888 0.3277595 1.4867129
-0.051326036 0.32773703 1.4863982
-0.062052913 0.32941413 1.4938222
-0.072463028 0.32916823 1.4923871
-0.082748942 0.32849139 1.4889303
-0.092930041 0.32759663 1.4844296
-0.10352304 0.32818782 1.4866842
-0.11407783 0.32856086 1.4878906
-0.12473509 0.32914168 1.489998
-0.13551448 0.3299301 1.4930037
-0.14577658 0.32943627 1.4900981
-0.1567114 0.33042702 1.4939271
-0.16749112 0.33098686 1.4957353
-0.17738861 0.32984012 1.4897045
-0.18745293 0.32911426 1.4855494
-0.19810744 0.32944649 1.4861718
-0.20904885 0.33019862 1.4886557
-0.2201757 0.33115771 1.4920276
-0.23061994 0.33104953 1.4904889
-0.24182692 0.33199793 1.4937034
-0.25147685 0.33081868 1.4871975
-0.26323241 0.33239302 1.4931464
-0.27333653 0.3318409 1.4893904
-0.28485224 0.33297992 1.4932499
-0.29511937 0.3326301 1.4903097
-0.30536011 0.33227572 1.4873004
-0.31678161 0.33318695 1.489961
-0.32825541 0.3340925 1.4925361
-0.33827949 0.33351201 1.4883505
-0.35135785 0.3358866 1.4974279
-0.40306407 0.37395987 1.6670368
-0.46885589 0.42254752 1.8834494
-0.49864551 0.43688735 1.9455644
-0.51249349 0.43686154 1.9430541
-0.53293705 0.44231111 1.9649897
-0.54745775 0.44269127 1.964124
-0.56119275 0.44243297 1.9603319
-0.57599813 0.44301057 1.9601994
-0.59139127 0.44400185 1.9618303
-0.60569042 0.44414479 1.9596045
-0.59741807 0.42810661 1.8854576
-0.64387643 0.45112914 1.9846267
-0.65593231 0.44957003 1.9745967
-0.66475767 0.44591036 1.955232
-0.68483138 0.44979122 1.9691155
-0.69830012 0.44926402 1.963452
-0.7143808 0.45040476 1.9650556
-0.7247715 0.44798365 1.950933
-0.74534148 0.45182651 1.9642181
-0.76543283 0.45523953 1.9754866
-0.7728582 0.45113254 1.9537977
-0.79093152 0.45327741 1.9593383
-0.81097353 0.45645356 1.9692501
-0.82592815 0.45670506 1.9663388
-0.84126812 0.45715728 1.9642149
-0.85351223 0.4559404 1.954793
-0.87317699 0.45866203 1.9622984
-0.89820993 0.46406782 1.981223
-0.91377223 0.46448493 1.9785502
-0.91941482 0.45992655 1.9544801
-0.94114912 0.46343464 1.9648896
-0.97330564 0.47188762 1.9962298
-0.98520058 0.47040978 1.9850839
-0.99173069 0.46645281 1.9633714
-1.0069009 0.46661624 1.9590986
-1.039189 0.47459269 1.9877185
-1.0532058 0.47411585 1.9804976
-1.0630119 0.47178367 1.9654164
-1.08579 0.47519353 1.9743506
-1.1059005 0.47735849 1.9779271
-1.1184257 0.47623485 1.9676784
-1.1298918 0.47469634 1.9556525
-1.1644084 0.48275492 1.9833168
-1.1963805 0.48956272 2.0055413
-1.2090453 0.48839667 1.9946977
-1.2241732 0.48824245 1.9879528
-1.228942 0.48401225 1.964457
-1.2538102 0.48770475 1.9732943
-1.2561609 0.48265532 1.9464216
-1.2816863 0.48652464 1.9557353
-1.3020109 0.48835111 1.9566166
-1.2918749 0.47884405 1.9117556
-1.3109303 0.48025239 1.9108553
-1.3372755 0.48426825 1.9202607
1.4283531 0.49433637 2.0197079
1.3978168 0.48932421 2.0061605
1.3736163 0.48643932 2.0012057
1.3735974 0.49215063 2.0318456
1.3256401 0.48061749 1.9905883
1.3585651 0.49848405 2.0720422
1.2909436 0.47944403 1.9988486
1.2819824 0.48198876 2.0160301
1.257841 0.47881851 2.0090332
1.2461421 0.48036447 2.0218718
1.2312944 0.48072058 2.0296054
1.2134045 0.47988287 2.0321708
1.1910992 0.47725388 2.0269654
1.1801518 0.47916654 2.0411024
1.1579854 0.4765141 2.0355542
1.1326284 0.47245818 2.0237999
1.111727 0.47017401 2.0195336
1.0918736 0.46827513 2.0168023
1.0821893 0.47074547 2.0329561
1.0587857 0.46723309 2.0229826
1.0351342 0.46350661 2.0119107
1.0266373 0.46655598 2.0303855
1.0014697 0.46200702 2.0154443
0.99920827 0.4680478 2.0469859
0.96919239 0.46107361 2.0210874
0.95411193 0.46109614 2.025938
0.943102 0.46311831 2.0395803
0.91947824 0.45891109 2.0254784
0.90481794 0.45911193 2.0308595
0.89286095 0.46071449 2.0424244
0.87388605 0.45868865 2.037698
0.86143965 0.46007857 2.0481744
0.83813429 0.4556151 2.0322881
0.81436747 0.45073402 2.0143619
0.80881327 0.4559392 2.04178
0.79306442 0.45548534 2.0436268
0.76385325 0.44713366 2.0096188
0.76026267 0.45374605 2.043288
0.73527408 0.44759649 2.0189822
0.71882528 0.44650087 2.0175121
0.69827574 0.44275948 2.0038817
0.69237852 0.44834715 2.0327358
0.67014629 0.4433701 2.0132573
0.66024768 0.44651324 2.0308442
0.6419028 0.44395733 2.0222425
0.62198585 0.44017023 2.0078716
0.6020211 0.43616843 1.9923869
0.58642393 0.43521315 1.9908205
0.57436579 0.43690223 2.0013759
0.55748248 0.43491343 1.9948796
0.53638315 0.42944479 1.9721812
0.45499498 0.37410975 1.7182616
0.41780221 0.35305277 1.6226856
0.40361062 0.35078567 1.6141007
0.39344835 0.35199025 1.6215792
0.38009283 0.35032448 1.6156496
0.36705509 0.3488569 1.6105698
0.35619625 0.34943235 1.6149514
0.34327233 0.34795284 1.6096851
0.33298281 0.34913373 1.6167862
0.31883216 0.34620613 1.6046171
0.30632564 0.34491342 1.6000253
0.29670948 0.34690091 1.6107441
0.28357995 0.34477535 1.6021277
0.27399334 0.34695965 1.6136765
0.26301566 0.34749541 1.6174407
0.25036114 0.34576386 1.6104928
0.23795804 0.34423172 1.6044176
0.2263291 0.34372258 1.6030961
0.21473016 0.34320796 1.6016926
0.20352799 0.34330571 1.6031199
0.19300875 0.34463429 1.6103008
0.18174817 0.34472212 1.6115798
0.16946022 0.34274375 1.6030495
0.15986857 0.34632513 1.6207236
0.14836046 0.34598526 1.6198269
0.14242581 0.35966355 1.6851566
0.13252199 0.3648845 1.7104789
0.1223425 0.37030786 1.7367212
0.11082362 0.37242603 1.7472801
0.098672628 0.37268183 1.7489717
0.087796077 0.37850425 1.7769678
0.076618768 0.3847349 1.8068526
0.064207785 0.38600665 1.8131994
0.051464483 0.38541475 1.8106602
0.039092109 0.38811988 1.8236853
0.026990518 0.39742586 1.8679346
0.014038928 0.39991307 1.8798153
0.00090989575 0.3962003 1.8622544
-0.010772127 0.35304743 1.6577233
-0.020275965 0.32021308 1.5020496
-0.030522492 0.31751713 1.489158
-0.040964156 0.3177067 1.4898925
-0.051384073 0.31768486 1.4895773
-0.061761443 0.31745172 1.4882135
-0.071934707 0.31638813 1.4828699
-0.082520172 0.31717718 1.4862518
-0.09303502 0.31754842 1.4876065
-0.10357261 0.31791469 1.4888885
-0.11361465 0.3168321 1.4832679
-0.12471398 0.31863222 1.4912336
-0.13496691 0.31815866 1.4883976
-0.14556351 0.31850511 1.4893893
-0.15527177 0.31699154 1.4815472
-0.16627856 0.31815261 1.4862878
-0.1771297 0.31889623 1.489005
-0.18729967 0.31839904 1.4858185
-0.19845717 0.31954437 1.4903257
-0.20901331 0.31965509 1.4899049
-0.21900824 0.31893793 1.4855376
-0.22895294 0.31821644 1.4811051
-0.24132226 0.32078075 1.4920691
-0.24982013 0.31819966 1.4788032
-0.26117149 0.31931433 1.4828469
-0.27346489 0.32145044 1.4916207
-0.28317177 0.3205004 1.4858708
-0.29412919 0.32098311 1.486783
-0.30589226 0.32228127 1.4914529
-0.31612396 0.32193315 1.4883701
-0.32716042 0.32240057 1.4890443
-0.33757833 0.32224831 1.4867737
-0.34908748 0.32311532 1.4891989
-0.36292571 0.32602349 1.5010571
-0.43719172 0.38149458 1.7570418
-0.49791172 0.42238662 1.9447093
-0.51272982 0.42317915 1.9459946
-0.52632052 0.42294356 1.9424421
-0.53910643 0.42209005 1.9359657
-0.55957949 0.42714709 1.9567188
-0.57763058 0.43015349 1.9678829
-0.58717704 0.42683423 1.9498124
-0.6016652 0.42717808 1.9485556
-0.62349826 0.43260252 1.9705456
-0.64506859 0.43760723 1.9904641
-0.65561783 0.43508017 1.9757682
-0.66599715 0.43255046 1.9610227
-0.68450332 0.43529442 1.9702985
-0.69991803 0.43600047 1.9701775
-0.71835494 0.4385232 1.9782298
-0.73389566 0.43921348 1.9778508
-0.74464297 0.43706378 1.9645195
-0.76437294 0.44016793 1.974905
-0.7846446 0.44346321 1.986024
-0.79310602 0.44008505 1.9669492
-0.815409 0.44437099 1.9823117
-0.83269817 0.44582188 1.9848002
-0.84317625 0.4436391 1.9709152
-0.85700667 0.44326431 1.9650708
-0.89096034 0.45313653 2.0048409
-0.89499825 0.44771948 1.9763243
-0.90765709 0.44672036 1.9674453
-0.92934746 0.45012733 1.9780202
-0.94661218 0.45131773 1.9786527
-0.97033066 0.45550102 1.9923733
-0.98866898 0.45707014 1.9944299
-0.99612242 0.45363536 1.9744231
-1.0224736 0.45878103 1.9919537
-1.0306379 0.45573547 1.9735408
-1.0518507 0.45846435 1.9802513
-1.0667304 0.45839486 1.9746696
-1.085809 0.46010655 1.9767207
-1.1116241 0.46458668 1.9906038
-1.1189299 0.46131453 1.9709183
-1.1518314 0.46854162 1.9963104
-1.168386 0.46901628 1.9925338
-1.1869438 0.4702723 1.9919983
-1.2106038 0.47349167 1.999705
-1.2313694 0.47551173 2.0021577
-1.2351847 0.47101754 1.9769207
-1.244979 0.46888626 1.9616845
-1.2562078 0.46734062 1.9488857
-1.2726617 0.4677527 1.94425
-1.2912738 0.46893877 1.9427552
-1.3273882 0.47637817 1.9671724
-1.3269737 0.4706873 1.9368404
-1.3629613 0.477891 1.9598887
1.4109583 0.4722954 1.9973451
1.3817035 0.46781468 1.9852551
1.3714697 0.4697448 2.0004621
1.349066 0.46750289 1.9976789
1.3305572 0.46657348 2.0004191
1.3088683 0.46449313 1.9980613
1.2962793 0.46563071 2.0095565
1.2883072 0.4684754 2.0284486
1.2625365 0.46483803 2.0189667
1.279444 0.4770205 2.0787525
1.2348701 0.46629918 2.0379248
1.2219357 0.46740198 2.0489511
1.2000185 0.4650526 2.0446298
1.180179 0.46345654 2.0435097
1.1353495 0.45187131 1.9977614
1.1416914 0.46061406 2.0424578
1.1272533 0.46109933 2.0502942
1.1039491 0.4579207 2.0415993
1.0762473 0.45280117 2.0240026
1.0583411 0.45171419 2.0244122
1.0507401 0.45505834 2.0447741
1.0226853 0.44951195 2.0247788
1.0105745 0.45091173 2.0361798
0.99194819 0.44940272 2.0342627
0.9624517 0.44284499 2.0091493
0.96241027 0.44984713 2.0459502
0.94637215 0.44947729 2.0489583
0.91746128 0.44288132 2.0232179
0.90362477 0.44346368 2.0303769
0.88817734 0.44326174 2.0338411
0.8627516 0.43798727 2.0137208
0.84293908 0.43542749 2.0060217
0.84295267 0.44320038 2.0462608
0.81837016 0.43808889 2.0265102
0.80988246 0.44156352 2.046685
0.79305786 0.44053799 2.0457866
0.77836353 0.44067913 2.0502603
0.75177032 0.43395716 2.0224292
0.73259866 0.43133634 2.0137002
0.71293503 0.42831317 2.0029559
0.706586 0.4333297 2.0300367
0.68734956 0.4304879 2.0199654
0.67167008 0.4297989 2.0199695
0.65542513 0.42870948 2.0179882
0.63247371 0.42308435 1.9943703
0.62657797 0.42887211 2.0248935
0.60481936 0.42381927 2.0037756
0.58805799 0.4221074 1.9984552
0.57274312 0.42137429 1.9977156
0.55773062 0.42083186 1.997806
0.52590525 0.40724158 1.9353175
0.46588817 0.37049869 1.761551
0.43323714 0.35408461 1.6849029
0.40426242 0.33982489 1.6183624
0.39225194 0.33940676 1.6182271
0.3798193 0.33858708 1.6160954
0.3665736 0.33696887 1.6100463
0.35426694 0.33613747 1.6077238
0.34383237 0.33708611 1.6139414
0.3329379 0.33763364 1.6181716
0.31803146 0.33400676 1.6021351
0.30792421 0.33533826 1.6100459
0.29684451 0.33567232 1.6130741
0.28455466 0.33460999 1.6092703
0.27265695 0.3339397 1.6073084
0.26033339 0.33266705 1.6023586
0.24958183 0.33337894 1.6070033
0.23920564 0.3346836 1.6144862
0.22670427 0.33299664 1.6073453
0.21508665 0.332499 1.6059397
0.20349957 0.33199605 1.6044525
0.19171274 0.33108917 1.6009375
0.18063653 0.3313731 1.6031816
0.17137361 0.33524185 1.6228933
0.1635603 0.34269783 1.6601089
0.15683252 0.35374317 1.7148597
0.14625022 0.35720441 1.7324891
0.13490689 0.35926431 1.7432157
0.12294485 0.35992202 1.7470272
0.11167365 0.36297023 1.7624935
0.10079566 0.36821023 1.7886504
0.089177944 0.3718482 1.8069118
0.07694231 0.37368366 1.816288
0.065920927 0.38330361 1.8637737
0.05217791 0.37793744 1.8377336
0.040067282 0.38475049 1.8713533
0.027227541 0.38776252 1.8862782
0.013472632 0.37119028 1.8050944
0.00077370071 0.32584319 1.5827194
-0.0097183399 0.30806065 1.4954832
-0.020102313 0.30705488 1.4904824
-0.030516859 0.30704328 1.4903097
-0.040956613 0.30722666 1.4910456
-0.051341195 0.30700576 1.4897513
-0.061910722 0.30777875 1.4932816
-0.072015122 0.30635005 1.4859725
-0.082665972 0.30731308 1.4903375
-0.093017779 0.30707324 1.48876
-0.10362071 0.30762723 1.4910227
-0.1143334 0.30837587 1.4941883
-0.12436803 0.30732352 1.4884899
-0.13502944 0.30786297 1.4905336
-0.14553662 0.30799851 1.4905521
-0.15594958 0.3079299 1.4895235
-0.16646311 0.30805603 1.4893979
-0.1773259 0.30877542 1.4921192
-0.18847682 0.3098883 1.4967079
-0.19765297 0.30780822 1.4856703
-0.20843612 0.30831397 1.487198
-0.218826 0.30821741 1.4857398
-0.22890981 0.30771828 1.4822735
-0.24143268 0.3103984 1.4942235
-0.25025713 0.30829844 1.4828734
-0.26213127 0.30997318 1.4898192
-0.27323979 0.31064826 1.4918513
-0.28493389 0.31191427 1.4966919
-0.29445082 0.31079164 1.4899013
-0.30486208 0.31065795 1.4878551
-0.31666988 0.31190875 1.4924518
-0.32772428 0.31236058 1.4931266
-0.33858928 0.31260926 1.4927649
-0.35123646 0.31443825 1.4999647
-0.36149326 0.31408256 1.496576
-0.37805313 0.31906691 1.518815
-0.47956905 0.39347893 1.8743906
-0.51221579 0.40888497 1.9459953
-0.52553821 0.40845948 1.9415004
-0.54351932 0.4115836 1.9539253
-0.55555058 0.41015854 1.9445025
-0.57377857 0.41326645 1.9566584
-0.58463305 0.41104183 1.9432917
-0.60279191 0.41393676 1.9542445
-0.62494707 0.41938177 1.9772012
-0.64535284 0.42343649 1.9934119
-0.65713173 0.42177761 1.9824255
-0.67035621 0.42109743 1.9760185
-0.68320721 0.42021596 1.9685974
-0.6998989 0.42168444 1.9721925
-0.70472091 0.41608599 1.9424366
-0.72913879 0.42205015 1.9670092
-0.74807197 0.42467096 1.9757314
-0.75662708 0.42141259 1.9568179
-0.7771185 0.42479986 1.9689288
-0.79563469 0.42700371 1.975386
-0.81243068 0.42822203 1.9771405
-0.82289118 0.42611691 1.9633621
-0.82477963 0.4197222 1.9296676
-0.85426491 0.42734993 1.9608663
-0.87869209 0.43223503 1.9791818
-0.89618945 0.43360689 1.9811445
-0.91253752 0.43438733 1.9802834
-0.92270941 0.43224975 1.9659508
-0.94450003 0.43553671 1.9763921
-0.96947128 0.44016656 1.9928099
-0.98477054 0.44033122 1.9887236
-0.99918693 0.4401021 1.9827651
-1.0278111 0.44604555 2.0046861
-1.0437143 0.44637606 2.0010338
-1.0486504 0.4420737 1.9764181
-1.070436 0.4448958 1.9838386
-1.0773659 0.44155079 1.9634713
-1.0964245 0.44320026 1.965427
-1.1198988 0.44656596 1.97491
-1.1489235 0.45202541 1.9935328
-1.1684037 0.45363551 1.9948758
-1.1944517 0.45772049 2.0070305
-1.2020439 0.4547191 1.9877776
-1.2308891 0.45973152 2.0037189
-1.2424477 0.45824298 1.9909781
-1.251278 0.45579737 1.9740189
-1.2599349 0.45334905 1.9570336
-1.2908584 0.45887503 1.9746186
-1.3118311 0.46077427 1.9762894
-1.3105145 0.45489192 1.9443005
-1.325913 0.45488095 1.9376115
-1.3713747 0.46506536 1.974466
1.3658922 0.44170108 1.9353237
1.3951433 0.45634186 2.0070558
1.3831146 0.4576636 2.0199249
1.3704282 0.45879629 2.0319076
1.3554792 0.45918941 2.0405295
1.3062176 0.44782805 1.9962772
1.2767115 0.44304547 1.9812573
1.2815249 0.45020142 2.0199921
1.2682527 0.45110333 2.0304842
1.2508039 0.45052356 2.0341775
1.2080642 0.44070289 1.9956023
1.2059468 0.4456386 2.0242128
1.1812501 0.44225061 2.0146649
1.1792121 0.44736865 2.0441012
1.1556022 0.44433042 2.0359337
1.1497926 0.44814694 2.0593379
1.107505 0.43765432 2.0163274
1.10302 0.44201508 2.0421097
1.0876949 0.44209439 2.0479343
1.0682786 0.44048899 2.0457938
1.0538561 0.44092593 2.0531118
1.0297117 0.43724751 2.0410023
1.0057929 0.43355507 2.0286574
0.99621141 0.43602434 2.0452662
0.97549599 0.4336215 2.0387678
0.95035768 0.42914525 2.0222888
0.93040961 0.4269062 2.016278
0.91744274 0.42784959 2.0253174
0.8984524 0.4259685 2.0207949
0.86474574 0.41692844 1.9818584
0.8734802 0.42839193 2.0410867
0.86142021 0.42987999 2.0524781
0.82771075 0.42042455 2.0110695
0.81944442 0.42378393 2.031291
0.80484349 0.42393094 2.0359523
0.79480135 0.42652994 2.0524247
0.76416302 0.41796362 2.0146353
0.75514382 0.42111805 2.0336468
0.73490745 0.4180181 2.0221496
0.71879131 0.41718316 2.0215824
0.70304227 0.416531 2.0218184
0.68513072 0.41454273 2.0154223
0.67226326 0.41558632 2.0237958
0.6541999 0.41339287 2.0162017
0.63097721 0.40776572 1.991599
0.62195104 0.41126466 2.0118244
0.60310853 0.40828457 2.0000436
0.58693588 0.40701082 1.9965824
0.57379454 0.40782806 2.003382
0.54278445 0.39566171 1.9457644
0.48630846 0.36380529 1.7901955
0.49817374 0.38273507 1.8865322
0.45618564 0.36019319 1.776697
0.41433087 0.33647406 1.6606654
0.39150658 0.3272706 1.6166894
0.37998471 0.32724422 1.6183697
0.36802793 0.32682997 1.6180545
0.35672191 0.32698554 1.6205295
0.34195825 0.32387671 1.6066015
0.33092999 0.32421353 1.6098603
0.32100865 0.32569745 1.6188226
0.30860725 0.32468182 1.6151901
0.2960963 0.32346848 1.6105002
0.28332713 0.32186508 1.603783
0.27212772 0.32198584 1.6056788
0.26091602 0.32210186 1.607498
0.24820186 0.32028952 1.5995413
0.23689178 0.32020307 1.6002264
0.22626252 0.32107416 1.6056924
0.21505359 0.32117081 1.6071984
0.20481242 0.32280344 1.6164166
0.19191384 0.32019374 1.6041335
0.18310949 0.32451516 1.6268597
0.18032375 0.3407844 1.7100488
0.17201531 0.34818742 1.7483494
0.15955773 0.34768212 1.7465497
0.14762375 0.34832853 1.7505305
0.13676709 0.35186338 1.7691061
0.12443279 0.35192117 1.7699974
0.11319885 0.35544693 1.7884313
0.10341131 0.36495101 1.8371651
0.09065561 0.36518702 1.8388071
0.079116404 0.37120852 1.869772
0.066294335 0.37239906 1.8761508
0.053332679 0.37319785 1.8804818
0.039939687 0.37051556 1.8670675
0.024741797 0.3404091 1.7142469
0.01125161 0.29948241 1.5063702
0.00072991371 0.29697487 1.4936558
-0.0096975081 0.29697284 1.493625
-0.0201899 0.29793167 1.4984288
-0.030590229 0.29734114 1.4953126
-0.040975101 0.29693913 1.4931065
-0.051464617 0.29730472 1.4947526
-0.061576899 0.29573524 1.486523
-0.072141528 0.29647774 1.4899877
-0.082595751 0.29663643 1.4904399
-0.092757136 0.29582566 1.4859236
-0.10326368 0.29616815 1.4872129
-0.11297812 0.29438397 1.4776673
-0.12393913 0.29587477 1.4846842
-0.13438965 0.29601061 1.4847807
-0.14541326 0.29729864 1.4906652
-0.15521103 0.29607573 1.4837815
-0.16556746 0.2960051 1.4826869
-0.17706153 0.29785663 1.4912673
-0.18734832 0.29758394 1.4890498
-0.19812503 0.29807717 1.4906545
-0.20772065 0.29683313 1.4834349
-0.21934754 0.29847193 1.4907215
-0.22856699 0.29683486 1.4814283
-0.24045584 0.29865602 1.4895234
-0.25149855 0.29931799 1.4917184
-0.26039669 0.29747689 1.4812646
-0.27266073 0.29947463 1.490074
-0.28215426 0.29839414 1.4833548
-0.29326263 0.29903761 1.4852457
-0.30499581 0.30025169 1.4899409
-0.31600243 0.30069327 1.4907043
-0.324745 0.2990216 1.4808373
-0.33809268 0.30156219 1.4919918
-0.34784678 0.3008405 1.4867779
-0.36096635 0.3029862 1.4958218
-0.37094378 0.3024472 1.4914137
-0.40210554 0.31872997 1.5706677
-0.49955201 0.38524896 1.8993552
-0.52449328 0.39381936 1.9395058
-0.53409952 0.39073095 1.9216793
-0.55445212 0.39546204 1.9425381
-0.57155901 0.39770341 1.9509541
-0.58404207 0.39669731 1.9432344
-0.60792929 0.40330368 1.9729893
-0.62403995 0.40456769 1.9762765
-0.6375277 0.40411282 1.9710228
-0.65281421 0.40479317 1.9712746
-0.67220587 0.40793571 1.9835073
-0.68541354 0.40727264 1.9769987
-0.69986969 0.40736338 1.974108
-0.70634812 0.40289995 1.9489371
-0.72910827 0.4077166 1.9689331
-0.74045175 0.40608642 1.9574507
-0.74921489 0.40312946 1.9394881
-0.76456577 0.40376109 1.9388734
-0.78176868 0.40532994 1.9426997
-0.80869716 0.41179505 1.9700277
-0.82285994 0.41164684 1.9653332
-0.83853304 0.41224617 1.9641545
-0.87954146 0.42506945 2.0214612
-0.87114799 0.41398793 1.9641249
-0.89415371 0.41794685 1.9787002
-0.91414392 0.42039108 1.9859027
-0.92268139 0.41757458 1.9679857
-0.95372623 0.42487291 1.9979833
-0.96774369 0.42447779 1.9913672
-0.98951143 0.42744255 2.000526
-1.0009226 0.42591175 1.9883848
-1.0184487 0.42698994 1.9884425
-1.0324197 0.42656773 1.9813704
-1.0513767 0.42818835 1.9837654
-1.0708854 0.42998481 1.9868582
-1.0796964 0.42749554 1.9699221
-1.0949839 0.42760375 1.9649974
-1.1357775 0.43753478 2.0053558
-1.145996 0.43557945 1.9906322
-1.1827127 0.44361466 2.0217562
-1.1789777 0.4364655 1.9830571
-1.2020482 0.43929598 1.9900275
-1.2375457 0.44653878 2.0169201
-1.2316014 0.43883416 1.9757068
-1.2481517 0.4392359 1.9712954
-1.2805651 0.44514221 1.9916092
-1.2908771 0.44331589 1.9769185
-1.3005085 0.44130209 1.96136
-1.3247305 0.44422853 1.967836
-1.3303486 0.44092089 1.9464056
-1.3608197 0.44583172 1.9614371
1.4087796 0.43957385 1.9988304
1.3862323 0.43750623 1.9963831
1.3737409 0.43860117 2.0083814
1.3496619 0.43597877 2.0031204
1.3517108 0.44183442 2.0370791
1.2917624 0.42732194 1.9762051
1.2867737 0.43085831 1.9992007
1.2595234 0.42693609 1.9872338
1.2501229 0.42904183 2.0034328
1.2487553 0.43399271 2.0330393
1.2115963 0.42647198 2.0036607
1.1789178 0.42035371 1.980644
1.1510757 0.41582185 1.9649285
1.1420789 0.41806751 1.9813774
1.1401495 0.42299595 2.0106559
1.1302468 0.42506069 2.0262294
1.1192454 0.42676383 2.0400329
1.1039312 0.42684725 2.0459747
1.0762181 0.42207041 2.0283015
1.0709721 0.42609411 2.0531471
1.0400051 0.41985229 2.0280468
1.0402488 0.42621204 2.0641966
1.0088029 0.41958389 2.0368896
0.99233669 0.41907817 2.0393605
0.97251779 0.41711864 2.0345929
0.95115721 0.41442528 2.0260828
0.93405885 0.41353211 2.0263186
0.91902256 0.41353762 2.0309005
0.89524615 0.40954497 2.015574
0.88266343 0.41062453 2.0252898
0.8596223 0.40679222 2.0104859
0.83985692 0.40440285 2.0027249
0.835105 0.40928635 2.0312042
0.81649095 0.40743005 2.0259328
0.79942989 0.40629435 2.024164
0.79124802 0.40971357 2.0452034
0.77554882 0.40929681 2.0469
0.74763954 0.40229362 2.015264
0.72820908 0.39966422 2.0055416
0.72366166 0.40526238 2.0373721
0.70044667 0.40042183 2.0162575
0.67756277 0.39556888 1.994923
0.66731209 0.39804077 2.0107191
0.6457392 0.39371899 1.9918448
0.6318267 0.39397776 1.9962164
0.62192011 0.39680445 2.0136497
0.6044845 0.39484751 2.0065553
0.59212983 0.39619502 2.016304
0.57027417 0.39109397 1.992885
0.54484397 0.38321769 1.9550538
0.49774832 0.35928887 1.8343997
0.48444811 0.35912156 1.8358564
0.49416581 0.37648124 1.9277064
0.44254687 0.34676901 1.776467
0.39235833 0.31646636 1.6217538
0.37925503 0.31514755 1.6167375
0.36775148 0.31511736 1.6183305
0.3566635 0.31545267 1.6217637
0.34412858 0.31448802 1.6183913
0.33048266 0.31240678 1.6091467
0.31925264 0.31254235 1.611365
0.30764318 0.3123028 1.611575
0.29692614 0.31298548 1.616537
0.28514042 0.31255123 1.6156218
0.27386948 0.31266865 1.6175294
0.26227453 0.3124103 1.6174198
0.24935231 0.31047586 1.608488
0.23813298 0.31057879 1.6101514
0.22690278 0.31067708 1.6117382
0.21553321 0.3105849 1.6122741
0.20453408 0.3110458 1.6156566
0.1980039 0.31875503 1.6570189
0.1923264 0.3288818 1.711062
0.18091203 0.32989141 1.7172197
0.17266166 0.33722413 1.7565514
0.16006969 0.33655056 1.7537736
0.14932342 0.33996755 1.7724478
0.14102741 0.35008436 1.8263252
0.12742166 0.34772077 1.8145025
0.11576888 0.35075301 1.8310179
0.10340168 0.35210392 1.838631
0.091414206 0.355313 1.8559753
0.079603694 0.36038056 1.8830588
0.066598333 0.36097097 1.8865024
0.051699813 0.34906912 1.8240583
0.03452263 0.30901706 1.6131824
0.021607639 0.28684941 1.4964769
0.011147662 0.28629726 1.4936411
0.00073498063 0.28853658 1.5054716
-0.0097332867 0.28760266 1.5005286
-0.020093998 0.2861051 1.4925671
-0.03064334 0.28739893 1.4992706
-0.040833082 0.28551984 1.4892046
-0.051319927 0.28605911 1.4918363
-0.061845046 0.28659391 1.4943959
-0.071985044 0.28544718 1.4880499
-0.082954332 0.28746343 1.4983147
-0.093100213 0.28649426 1.4928099
-0.10351055 0.28645214 1.4921391
-0.11421236 0.28715056 1.4953164
-0.12488212 0.28765807 1.4974391
-0.1343604 0.28555486 1.4857867
-0.1447216 0.28549531 1.4848347
-0.15588482 0.28691995 1.4916303
-0.1656391 0.28573528 1.4846717
-0.17599231 0.28566265 1.4835062
-0.18730791 0.28707314 1.4900702
-0.19769827 0.28699148 1.4887565
-0.20807962 0.28690556 1.487372
-0.21830995 0.28662965 1.4849443
-0.22866508 0.28653523 1.4834189
-0.23962951 0.2871792 1.4857044
-0.2516062 0.28893185 1.4937261
-0.26252738 0.2893804 1.4948775
-0.27242708 0.28871179 1.490149
-0.28245607 0.28822479 1.4863223
-0.29432884 0.28958672 1.4920745
-0.30493024 0.28964689 1.4909924
-0.31452334 0.28877723 1.4850276
-0.32634014 0.28993949 1.4895673
-0.33759066 0.29054156 1.4911386
-0.34777182 0.29021472 1.4878399
-0.35769624 0.2896992 1.4835168
-0.36851749 0.28991872 1.4829464
-0.3824861 0.29253325 1.494684
-0.44224876 0.32908195 1.6812961
-0.51911378 0.37609407 1.9212654
-0.54476303 0.38453862 1.9622074
