# .PCD v0.7 - Point Cloud Data file format
VERSION 0.7
FIELDS x y z
SIZE 4 4 4
TYPE F F F
COUNT 1 1 1
WIDTH 1436
HEIGHT 1
VIEWPOINT 0 0 0 1 0 0 0
POINTS 1436
DATA ascii
0.017200958 -0.4945901 1.1335499
0.0090620955 -0.50409013 1.1556832
0.00058540481 -0.49776846 1.1410201
-0.0077281706 -0.49460238 1.1336472
-0.01612743 -0.4973596 1.1399949
-0.024482738 -0.49734205 1.1398556
-0.032836977 -0.49731714 1.1396589
-0.041157044 -0.49688977 1.138487
-0.049501415 -0.49685052 1.1381761
-0.058948036 -0.50628954 1.1598263
-0.065130271 -0.48884657 1.1190407
-0.072504461 -0.48325473 1.105732
-0.079953454 -0.47923753 1.0960439
-0.089515179 -0.48746043 1.1146997
-0.097688794 -0.4873794 1.1140574
-0.10560083 -0.48610672 1.110615
-0.11383814 -0.48640665 1.1107765
-0.12129161 -0.48354161 1.1035731
-0.12991476 -0.48540649 1.1072766
-0.13983278 -0.49160346 1.1209489
-0.14686655 -0.48753464 1.1108487
-0.15539244 -0.48858729 1.1125435
-0.16408317 -0.49002653 1.1150864
-0.1722651 -0.48988143 1.1139315
-0.18087505 -0.49091122 1.1154431
-0.18769586 -0.487207 1.1060138
-0.21053672 -0.52365834 1.1889073
-0.22980788 -0.54866284 1.2453114
-0.22076915 -0.50675583 1.1479586
-0.22029817 -0.48689735 1.101311
-0.22765005 -0.48513171 1.0961659
-0.23417576 -0.48178846 1.0873772
-0.24295735 -0.48315474 1.0893322
-0.2495362 -0.48019379 1.0813563
-0.25980288 -0.48429269 1.0894614
-0.26759696 -0.48367354 1.0867527
-0.27559009 -0.48344004 1.0848839
-0.28380132 -0.48359159 1.0838506
-0.29177684 -0.48334417 1.0818696
-0.2980395 -0.48034954 1.0736204
-0.30220431 -0.47422093 1.058253
-0.31281322 -0.47825938 1.06587
-0.32145241 -0.47915962 1.0663348
-0.32904178 -0.47848925 1.0632122
-0.33357924 -0.47351855 1.0503739
-0.34554636 -0.47908032 1.0611982
-0.35423684 -0.47994936 1.0614128
-0.362362 -0.48003083 1.0598153
-0.37529179 -0.48633498 1.0720904
-0.38473928 -0.48795399 1.0738164
-0.40237483 -0.49967343 1.0979939
-0.4114401 -0.50048876 1.0977809
-0.44495562 -0.53041774 1.1621515
-0.45320335 -0.52964193 1.1581891
-0.46547818 -0.53351164 1.1644608
-0.47545868 -0.53465515 1.1646352
-0.49143127 -0.54236954 1.179226
-0.50121826 -0.54310048 1.1783496
-0.51138365 -0.54420793 1.1782451
-0.51123315 -0.53449136 1.1543931
-0.51151448 -0.525554 1.1322889
-0.52409858 -0.52934581 1.1379614
-0.51972896 -0.5161733 1.1066725
-0.47277567 -0.46183497 0.98619455
-0.49170369 -0.47256905 1.007022
-0.48496825 -0.45868915 0.97457284
-0.49427503 -0.46017909 0.97532105
-0.52035165 -0.47699571 1.0089267
-0.53167272 -0.47998115 1.0126812
-0.52758604 -0.46917555 0.98689908
-0.52795058 -0.46258819 0.97018623
-0.5510987 -0.47586527 0.99571747
-0.55179012 -0.4696489 0.97974765
-0.5699904 -0.47830015 0.99522609
-0.58706808 -0.48578188 1.0080955
-0.56382632 -0.46015275 0.95127439
-0.57328272 -0.46154177 0.95132184
-0.56796235 -0.45115593 0.92672414
-0.60969478 -0.47792742 0.97957665
-0.59205073 -0.45806396 0.9352594
-0.62824601 -0.47983062 0.9772886
-0.6350413 -0.4788757 0.97213459
-0.65344489 -0.48658872 0.98477048
-0.66950643 -0.49238876 0.99334341
-0.85457093 -0.62082338 1.2521908
-0.93405092 -0.67038119 1.3487092
-0.85729486 -0.60796124 1.2174132
-0.91021436 -0.63788944 1.2735572
-0.86457711 -0.5988552 1.1903689
-0.87890375 -0.60177553 1.1918674
0.76846135 -0.5280717 1.0195185
0.76024961 -0.52842885 1.0240458
0.75471276 -0.53067517 1.0322679
0.86894822 -0.61818206 1.2094085
0.93453395 -0.67274874 1.32224
0.8062337 -0.58737522 1.1565635
0.78149068 -0.57628626 1.1383896
0.69247591 -0.51694381 1.023083
0.69796765 -0.52755094 1.047925
0.65351367 -0.50019789 0.99610287
0.6321578 -0.49004978 0.97878486
0.61843812 -0.48563477 0.97296333
0.63145155 -0.50237215 1.0102297
0.61430776 -0.49524313 0.99879199
0.60539526 -0.4946472 1.0006436
0.59508991 -0.49288133 1.0000367
0.58805013 -0.49380875 1.0049325
0.56960618 -0.48505086 0.98972863
0.57116079 -0.49331596 1.0097555
0.56403959 -0.49421856 1.0144949
0.54377723 -0.48346403 0.9948445
0.52685159 -0.4753997 0.98066807
0.52333373 -0.47937274 0.99164897
0.52429008 -0.4876292 1.0116549
0.5212667 -0.49238425 1.0243151
0.54817951 -0.52601588 1.0981126
0.5491997 -0.53548515 1.1209433
0.54084188 -0.53597099 1.1247166
0.5386737 -0.54270905 1.1417805
0.54966402 -0.56315666 1.1881646
0.53593355 -0.55854481 1.1810229
0.55526298 -0.58882976 1.2487057
0.54525721 -0.58853155 1.2508252
0.54240304 -0.59608191 1.2698138
0.50908667 -0.56981552 1.2157547
0.4976455 -0.56750524 1.2132784
0.48694757 -0.56597012 1.2124146
0.48028201 -0.56915343 1.2217455
0.45914924 -0.55497724 1.1932484
0.43686098 -0.53879815 1.1602163
0.42637715 -0.53680766 1.1580228
0.41195396 -0.52966756 1.1444906
0.40437725 -0.53121144 1.1499078
0.37964907 -0.5097928 1.1048329
0.37233016 -0.5113098 1.1100394
0.36072639 -0.50687635 1.1020944
0.35229227 -0.50679171 1.1036782
0.34116304 -0.50273162 1.0964264
0.32963404 -0.49786508 1.0873183
0.32107851 -0.49735528 1.0878001
0.31328481 -0.49802983 1.0908675
0.30400321 -0.49631172 1.088575
0.29524723 -0.49538016 1.0879822
0.2881321 -0.49722707 1.0935391
0.27983177 -0.49707711 1.0946056
0.27218553 -0.49811518 1.0982859
0.26407918 -0.49834958 1.1001313
0.25841865 -0.50336325 1.1126466
0.25080663 -0.50478274 1.1170819
0.24256952 -0.50499851 1.1187788
0.23672999 -0.51039892 1.132091
0.22928098 -0.51260006 1.1381859
0.21934636 -0.50919986 1.1316302
0.21084502 -0.50898844 1.132208
0.20250674 -0.5091694 1.1336284
0.19370216 -0.50814283 1.1322803
0.18726391 -0.51351202 1.145344
0.17674392 -0.50766695 1.1330162
0.16946818 -0.51102215 1.1414548
0.16321591 -0.51797724 1.1580176
0.15422018 -0.51651388 1.155476
0.14594881 -0.51744711 1.1583242
0.13700598 -0.51596779 1.1556574
0.12641254 -0.50766337 1.1374458
0.11786264 -0.5069685 1.1364623
0.10985387 -0.50867307 1.1408905
0.10098723 -0.5063585 1.1361409
0.092562594 -0.5060423 1.1358925
0.083278976 -0.50050086 1.1237104
0.075620987 -0.50458467 1.1333927
0.066863611 -0.50143576 1.1265687
0.058021735 -0.49667266 1.1160232
0.050423864 -0.50274342 1.1301175
0.041918352 -0.50037456 1.1249437
0.033868738 -0.50362068 1.1325264
0.02528365 -0.49842566 1.1208278
0.017007351 -0.49723932 1.1182258
0.0089405654 -0.50568551 1.1375455
0.00057978358 -0.50127143 1.1275045
-0.0076843924 -0.50006336 1.1247329
-0.01593403 -0.49965125 1.1237359
-0.024169702 -0.49923196 1.1226827
-0.032364961 -0.49840382 1.1206576
-0.040237863 -0.4939543 1.1103398
-0.048710644 -0.49712777 1.1173556
-0.058344893 -0.50952846 1.1453488
-0.064389586 -0.49140698 1.1037734
-0.07214506 -0.48893821 1.0978197
-0.080542296 -0.49087808 1.1018647
-0.089147218 -0.49361289 1.1076756
-0.097366378 -0.49393228 1.1079484
-0.10568022 -0.49464551 1.1090761
-0.11401591 -0.49535123 1.1101453
-0.12187848 -0.49404451 1.1066025
-0.13043483 -0.49553764 1.1093777
-0.13814129 -0.49381629 1.1048172
-0.14626388 -0.4936915 1.1038405
-0.15412951 -0.49275842 1.1009929
-0.162094 -0.49221915 1.0989996
-0.16989987 -0.49127275 1.0960468
-0.17796215 -0.49112031 1.0948517
-0.18677476 -0.49296153 1.0981205
-0.19580308 -0.49519438 1.1022259
-0.24064405 -0.58418685 1.301922
-0.23359297 -0.54520035 1.2128861
-0.21939586 -0.49305001 1.0943402
-0.22413473 -0.48566532 1.0766388
-0.23206422 -0.48546576 1.0750701
-0.24077313 -0.4868556 1.0770284
-0.2511546 -0.49142823 1.0860734
-0.2604191 -0.49359736 1.0896735
-0.26649773 -0.48977953 1.0798334
-0.27780777 -0.49551797 1.0913161
-0.28424481 -0.49248478 1.0831593
-0.29861134 -0.50297678 1.1051095
-0.30918774 -0.50668943 1.1118731
-0.32112527 -0.5123781 1.122962
-0.33170864 -0.51566935 1.1286535
-0.34186935 -0.51815504 1.1324961
-0.35586229 -0.52618575 1.1485444
-0.36323944 -0.52428448 1.142558
-0.36858183 -0.51960337 1.1304102
-0.39015639 -0.5374974 1.1679528
-0.38820198 -0.52290189 1.1339101
-0.40348625 -0.53165656 1.151166
-0.40923509 -0.52774143 1.1405587
-0.40703091 -0.51394761 1.1083369
-0.4331046 -0.53569365 1.1537457
-0.45498294 -0.55148339 1.1859579
-0.46309221 -0.55029136 1.1810701
-0.42552775 -0.4959164 1.0607384
-0.43270293 -0.49475119 1.0560656
-0.44298837 -0.49711946 1.0589973
-0.4273037 -0.4707886 0.99996871
-0.43727115 -0.4731566 1.0029033
-0.45099655 -0.47943634 1.0141759
-0.46828914 -0.48922586 1.0328687
-0.46833742 -0.48097366 1.0128549
-0.46501917 -0.46959713 0.9862166
-0.49046582 -0.48716542 1.0212432
-0.4988642 -0.48750618 1.0194798
-0.48697388 -0.46832442 0.97633016
-0.49218929 -0.46593606 0.96881467
-0.49857557 -0.46471262 0.9637394
-0.52060074 -0.47788194 0.98888475
-0.54044354 -0.4886843 1.0088838
-0.54186404 -0.48275593 0.99374765
-0.55148834 -0.48420244 0.99401206
-0.55622029 -0.48137355 0.985331
-0.5853585 -0.49944866 1.0199773
-0.57274741 -0.48189452 0.98071951
-0.58845502 -0.48832157 0.99105853
-0.60340315 -0.49395317 0.99964422
-0.70727742 -0.57125884 1.1549615
-0.74535984 -0.59408891 1.1980027
-0.77091527 -0.6064707 1.2194327
-0.89822274 -0.69755465 1.4003928
-0.94117481 -0.7216509 1.4445901
-0.94940048 -0.71885037 1.4341754
-0.97338724 -0.72790545 1.4475677
-0.96347028 -0.71169561 1.4101729
-0.97659159 -0.71268928 1.4072846
-0.89085412 -0.64237446 1.2624727
-0.88531232 -0.63086194 1.2351536
-0.87509471 -0.61632407 1.201972
-0.90151912 -0.62763065 1.2198133
0.76330364 -0.53319448 1.0099273
0.78733873 -0.5563004 1.0583209
0.88252783 -0.63080174 1.2065613
1.0215279 -0.73873746 1.4207994
1.0997353 -0.8047545 1.5546935
1.0938392 -0.81007564 1.5705992
1.0453103 -0.78356868 1.5239855
1.0431055 -0.79156101 1.5449624
1.0208955 -0.78438228 1.5359776
0.99887425 -0.77716893 1.5267687
0.88498223 -0.69737548 1.3729148
0.802288 -0.64041466 1.2635852
0.70869333 -0.57314062 1.1328244
0.6653192 -0.54523033 1.0802839
0.65673101 -0.5454582 1.0840741
0.6043247 -0.50880057 1.0132507
0.59855008 -0.51093107 1.0205963
0.57998306 -0.50204808 1.005529
0.57198226 -0.50218844 1.0087187
0.55246598 -0.49207619 0.99090201
0.54677242 -0.49415949 0.99793869
0.54401857 -0.49900138 1.0106299
0.52073687 -0.48487562 0.98422897
0.51461089 -0.48653546 0.9902634
0.50553888 -0.48541832 0.9905203
0.50421172 -0.49182028 1.0063457
0.49307442 -0.48870531 1.0023763
0.48044783 -0.48398802 0.99498922
0.47533056 -0.48680431 1.0032791
0.46591774 -0.48524225 1.0023723
0.46443629 -0.49202892 1.0189608
0.48528281 -0.52312243 1.0867852
0.45064455 -0.49444717 1.0286504
0.45082617 -0.50362855 1.0503196
0.43597192 -0.49604201 1.036472
0.46651614 -0.54079652 1.1337347
0.42658979 -0.50401002 1.0577239
0.44130832 -0.5316093 1.1187176
0.45254776 -0.55603629 1.173115
0.44127077 -0.55322969 1.1693435
0.42286545 -0.54118329 1.14568
0.42049745 -0.54958576 1.1658275
0.45365769 -0.60579598 1.2889273
0.39757282 -0.54268199 1.1550409
0.41176632 -0.57480967 1.2264065
0.38069707 -0.54377717 1.1612806
0.39081532 -0.57149881 1.2232336
0.37502924 -0.56176764 1.2040284
0.36611238 -0.56209719 1.2065839
0.35154274 -0.55354255 1.1897523
0.34248608 -0.55344748 1.191265
0.32344899 -0.53678399 1.1565576
0.32081339 -0.54717046 1.1808438
0.31230995 -0.54785597 1.1839087
0.30445218 -0.54974759 1.1895759
0.2954419 -0.54960948 1.1907539
0.27714437 -0.53164703 1.1527228
0.26780662 -0.53026915 1.151037
0.25395316 -0.51956099 1.1287538
0.25174341 -0.53275728 1.1590747
0.24318387 -0.53297728 1.1607772
0.23247126 -0.52832037 1.1516641
0.2260337 -0.53339446 1.1640044
0.21347222 -0.52384567 1.1439598
0.20216914 -0.51671976 1.1292013
0.19657895 -0.52421057 1.1467789
0.18403618 -0.51299977 1.1228468
0.17686638 -0.51641291 1.1313064
0.16732806 -0.51290596 1.1243585
0.15966651 -0.51508564 1.1300036
0.15109545 -0.5144102 1.1292607
0.14299601 -0.51535535 1.1320829
0.13465129 -0.51547897 1.1330364
0.12490406 -0.50989366 1.1212227
0.11533614 -0.50429851 1.109333
0.10707335 -0.50399029 1.109188
0.098739184 -0.50326717 1.1080757
0.091013864 -0.50579703 1.114187
0.08187075 -0.50016773 1.1020339
0.073510401 -0.49860641 1.0989234
0.065360256 -0.49826065 1.0984887
0.057220522 -0.49790761 1.0979978
0.049172018 -0.4983629 1.099275
0.041040901 -0.49799535 1.0986723
0.033110142 -0.5004757 1.1044021
0.024996618 -0.50090957 1.1055142
0.016813848 -0.49970451 1.1029191
0.0087410752 -0.50257146 1.1093975
0.00056488073 -0.49645659 1.0957342
-0.0075789141 -0.50134867 1.1066664
-0.015855921 -0.50541747 1.1157156
-0.023604313 -0.49560982 1.0936711
-0.032075722 -0.50211138 1.108084
-0.040267572 -0.50248694 1.1087483
-0.047920574 -0.49714553 1.0965852
-0.05645575 -0.50117701 1.1053475
-0.063964643 -0.49623001 1.0939932
-0.070838399 -0.48801538 1.0753025
-0.080273598 -0.49732441 1.0957366
-0.088706248 -0.49928707 1.0997093
-0.097280197 -0.50164938 1.104531
-0.10592924 -0.50400358 1.1092902
-0.11428402 -0.50472009 1.1103519
-0.1227591 -0.50583649 1.112263
-0.13053036 -0.50409454 1.1077626
-0.13757105 -0.49990374 1.0977731
-0.14933722 -0.51239401 1.124877
-0.15624689 -0.50778168 1.113869
-0.16550872 -0.51089293 1.1199991
-0.17182501 -0.50504893 1.1061907
-0.18447092 -0.51749432 1.1329463
-0.1929716 -0.5177328 1.1325506
-0.19831668 -0.5098387 1.1140954
-0.22792473 -0.56245196 1.2295591
-0.23937564 -0.56792855 1.2405289
-0.23803177 -0.54376954 1.1859556
-0.24622037 -0.54233712 1.1816025
-0.25626594 -0.54495263 1.1861366
-0.26461703 -0.54391038 1.1825578
-0.26987553 -0.53678435 1.165555
-0.28456935 -0.54828387 1.1894739
-0.29074439 -0.54317021 1.176824
-0.29228911 -0.52996242 1.1464119
-0.30442733 -0.53616858 1.158535
-0.31038609 -0.5314486 1.1466875
-0.32273656 -0.53763205 1.1586331
-0.33478123 -0.54299343 1.1687049
-0.34545949 -0.54592001 1.1733969
-0.34915844 -0.53794712 1.1543251
-0.35233095 -0.52957237 1.1343876
-0.34480068 -0.50589401 1.0812857
-0.35112199 -0.50316852 1.0736521
-0.3610861 -0.5056684 1.0772871
-0.36554497 -0.50051916 1.0643605
-0.37103546 -0.49697584 1.0548881
-0.36905804 -0.48379394 1.0246789
-0.38635308 -0.49589902 1.0487952
-0.38042495 -0.47831061 1.0091705
-0.39572522 -0.48758289 1.0270747
-0.40501222 -0.48922741 1.0285854
-0.40083662 -0.47485971 0.99593931
-0.40721181 -0.4732981 0.99059373
-0.41843387 -0.47732335 0.9970724
-0.42335969 -0.47415048 0.98823923
-0.43398094 -0.47735575 0.99286634
-0.44063824 -0.47616485 0.98815864
-0.4622471 -0.49089316 1.0168986
-0.47058553 -0.49126795 1.0153425
-0.47350711 -0.48606968 1.0020756
-0.46288911 -0.46737134 0.96062607
-0.47804743 -0.47488254 0.97392631
-0.47720966 -0.46651733 0.95411623
-0.49380216 -0.475187 0.96966678
-0.50563991 -0.47908461 0.97521961
-0.53156453 -0.49600863 1.0075563
-0.52878368 -0.48604169 0.98435611
-0.55922723 -0.50645745 1.0235523
-0.62206501 -0.55519277 1.1204157
-0.63177425 -0.55579507 1.1184857
-0.74938673 -0.64996856 1.306859
-0.78852451 -0.67440605 1.3526256
-0.85861123 -0.7242803 1.4494963
-0.86753052 -0.72190553 1.4403496
-0.88875854 -0.72969997 1.4516181
-0.91116506 -0.73824412 1.4642344
-0.95529515 -0.76393807 1.5109506
-0.96310228 -0.76029837 1.4988593
-0.92579222 -0.72158533 1.4171247
-0.95052618 -0.73159474 1.4322428
-0.99649501 -0.75749868 1.4785192
-0.96875697 -0.72742504 1.4143686
-0.96154946 -0.71330667 1.3818172
-1.0040892 -0.73598909 1.4212369
-1.0782198 -0.78102058 1.5037606
-1.0258003 -0.73440284 1.4079728
-0.92625296 -0.65550536 1.2504468
0.80218697 -0.56946439 1.059335
0.962623 -0.69120467 1.2939316
0.96475232 -0.70078206 1.3169293
1.0632478 -0.7814064 1.4755692
1.0537413 -0.78363162 1.4851286
1.0729054 -0.80748814 1.5362251
1.0784335 -0.82153851 1.5686709
1.1285552 -0.87032521 1.668445
1.1221058 -0.87615901 1.685408
1.1249684 -0.88950324 1.7170061
1.0863793 -0.86999393 1.6845114
1.0752141 -0.87222493 1.6943189
1.0731379 -0.88198471 1.7188898
0.97055101 -0.80829692 1.5789157
0.95871383 -0.80921817 1.5855966
0.87281591 -0.74679691 1.4665284
0.79379374 -0.68860799 1.3550887
0.78090566 -0.68695968 1.3557724
0.71654946 -0.63934165 1.2643651
0.68187445 -0.6172114 1.2235296
0.63650948 -0.58461249 1.1613261
0.62607378 -0.58360118 1.1624697
0.55036002 -0.52078867 1.0384914
0.53963417 -0.51848668 1.0365732
0.51949257 -0.50692487 1.0157526
0.50415468 -0.49975818 1.0037339
0.50541794 -0.50908214 1.0253133
0.48394608 -0.49543649 0.99987334
0.47063217 -0.48982722 0.99076623
0.45824358 -0.48500741 0.98318988
0.45612988 -0.49108386 0.99801368
0.44717708 -0.48988104 0.99779803
0.44006905 -0.49069232 1.0017058
0.43078768 -0.48906562 1.0005162
0.42435476 -0.49067247 1.0060027
0.41200957 -0.48537478 0.99706012
0.40793863 -0.48980841 1.0083722
0.39210466 -0.48001531 0.98988611
0.38405836 -0.47955522 0.99086386
0.37538141 -0.47827277 0.99006957
0.3695569 -0.48064688 0.99692708
0.37991807 -0.50462025 1.0493369
0.38412052 -0.52127665 1.0864196
0.35190383 -0.48815238 1.0181797
0.34546968 -0.49010128 1.0240475
0.34910506 -0.50675756 1.0611326
0.33708209 -0.50093591 1.0504628
0.33706254 -0.51310325 1.0780487
0.3285237 -0.51258546 1.0785983
0.32281217 -0.51656556 1.0887165
0.32395974 -0.53201896 1.1233757
0.32194358 -0.54297036 1.1484348
0.31011021 -0.5375129 1.1382947
0.30074656 -0.536147 1.1368732
0.29075009 -0.53353959 1.1327292
0.29561213 -0.55886513 1.1887109
0.28596443 -0.55748355 1.1871691
0.27778715 -0.55897176 1.1917728
0.27648586 -0.57485527 1.2274618
0.27448764 -0.59033257 1.262301
0.26515472 -0.59057617 1.2641579
0.25688076 -0.59328353 1.2713116
0.24679881 -0.59186268 1.2694677
0.23758507 -0.59249371 1.272029
0.22294895 -0.57909298 1.2440288
0.21695651 -0.58795494 1.2643906
0.20718285 -0.58690858 1.2631528
0.19785708 -0.5870918 1.2645453
0.1882575 -0.58644038 1.2640712
0.17829807 -0.58454096 1.2608235
0.1681578 -0.58180559 1.2556975
0.1566353 -0.57368714 1.2387501
0.14558186 -0.56638324 1.2235172
0.13954364 -0.57891631 1.2516373
0.12640209 -0.56166732 1.2145252
0.11934395 -0.57087868 1.2353015
0.11095181 -0.57470649 1.244252
0.10111704 -0.57107836 1.2368158
0.089330226 -0.55461031 1.2011636
0.080410406 -0.55427331 1.2008386
0.071927831 -0.55724019 1.2077214
0.062600367 -0.55357498 1.2000033
0.054112941 -0.55735451 1.2085869
0.044731621 -0.55160189 1.1961935
0.036019031 -0.5532949 1.2001094
0.026926508 -0.54835367 1.1894068
0.018238612 -0.55085915 1.195022
0.0093357451 -0.54548723 1.1832849
0.00061399286 -0.5483911 1.1896905
-0.0081512462 -0.54797351 1.1887543
-0.016890096 -0.54713374 1.186848
-0.025756989 -0.54959941 1.1921618
-0.033973321 -0.54046094 1.1719384
-0.042419255 -0.53794146 1.1662177
-0.051058829 -0.53831321 1.1668063
-0.057965405 -0.5229432 1.1327896
-0.063749589 -0.50260073 1.0878336
-0.072430253 -0.50709277 1.0973604
-0.085526295 -0.53847957 1.1658392
-0.093763217 -0.53632897 1.1606847
-0.1030354 -0.53996414 1.168174
-0.11165196 -0.53986692 1.1674366
-0.12192247 -0.54720688 1.1829441
-0.12995641 -0.54419786 1.1757406
-0.13989393 -0.54903752 1.185671
-0.1448348 -0.53485358 1.1539547
-0.15915798 -0.55496687 1.1971713
-0.16273621 -0.5374679 1.1581613
-0.16957328 -0.53194779 1.1452981
-0.18037884 -0.5388096 1.1594074
-0.18401596 -0.52460909 1.127563
-0.19582529 -0.53392917 1.1469287
-0.20098074 -0.52508634 1.1267121
-0.22656953 -0.568196 1.2193888
-0.24565731 -0.59230596 1.2705995
-0.26053554 -0.60485256 1.2965826
-0.25041568 -0.56054378 1.1992619
-0.25432193 -0.5496096 1.1743371
-0.24231559 -0.5061667 1.0791219
-0.25091213 -0.50717831 1.0800917
-0.27444547 -0.53737324 1.1439786
-0.27468282 -0.52150524 1.1084071
-0.28043547 -0.5167352 1.0967622
-0.28993335 -0.5189417 1.1000973
-0.28228101 -0.49118304 1.0390503
-0.28877345 -0.48887393 1.0326819
-0.29692999 -0.48942947 1.0324202
-0.31096664 -0.49939984 1.0522425
-0.31275818 -0.48969796 1.0299679
-0.32576138 -0.49759591 1.0452288
-0.31569248 -0.47071528 0.98638147
-0.31488442 -0.45857373 0.95899302
-0.32976577 -0.46931383 0.98019028
-0.34673586 -0.48248222 1.0064164
-0.35332081 -0.48094088 1.0014093
-0.36719638 -0.48917782 1.0170108
-0.38007182 -0.49576646 1.0290377
-0.38581714 -0.49297538 1.0212492
-0.39569354 -0.4954688 1.0245333
-0.39769313 -0.488195 1.0072958
-0.40418592 -0.48661086 1.0019727
-0.4109672 -0.48542732 0.99745852
-0.41175815 -0.4773432 0.97854549
-0.42155197 -0.47980025 0.98156613
-0.43358722 -0.48467499 0.98953837
-0.43913275 -0.48225152 0.98232752
-0.46107739 -0.49761018 1.0118061
-0.45835519 -0.48627803 0.98612899
-0.48351881 -0.50441509 1.0210724
-0.50293636 -0.51606071 1.0424923
-0.52588904 -0.53089905 1.0702844
-0.53631735 -0.53282315 1.0715402
-0.61586261 -0.60227948 1.2101514
-0.71208227 -0.6856519 1.3762426
-0.75154299 -0.71267194 1.4273258
-0.85617101 -0.79975808 1.5993395
-0.87200218 -0.80255514 1.6006238
-0.8830483 -0.80093104 1.5929343
-0.90922791 -0.8128832 1.6123842
-0.95250201 -0.83956617 1.6610481
-0.88000649 -0.7648825 1.5075141
-0.9307583 -0.79790217 1.568598
-0.92740983 -0.7842778 1.5369081
-0.93269402 -0.77822006 1.5202495
-0.95080018 -0.78287935 1.524685
-0.95340902 -0.77482289 1.5040659
-0.93848491 -0.7529074 1.4563938
-0.9353916 -0.74091828 1.4282796
-0.93193215 -0.72894269 1.4002869
-0.97050351 -0.74973285 1.4358146
-1.0396036 -0.79331148 1.5149758
-0.98358476 -0.74151343 1.4101435
-1.006802 -0.74997324 1.4213858
-1.003574 -0.73876649 1.3949144
-0.97037196 -0.70601249 1.327554
nan nan nan
0.97353059 -0.7021535 1.2854147
0.96437538 -0.70353889 1.2928257
1.079675 -0.79680449 1.4716822
1.062718 -0.79350936 1.4708829
0.99250782 -0.74990004 1.3942021
1.0937791 -0.83636504 1.5622491
1.1073375 -0.85704964 1.6068572
1.1156887 -0.87416482 1.6448902
1.0937123 -0.8676483 1.6380434
1.1668441 -0.93737108 1.7768149
1.1515168 -0.93690717 1.7817575
1.1205543 -0.923545 1.7618023
1.111181 -0.92785883 1.7757348
1.0749658 -0.9095754 1.7458909
1.0467899 -0.89769262 1.7281903
1.0682322 -0.92861784 1.7936764
1.0387056 -0.91547912 1.7733517
1.0018339 -0.89540577 1.7392162
0.98073947 -0.88906181 1.7317643
0.96246058 -0.88512367 1.7289124
0.93774551 -0.8750639 1.7138497
0.8450036 -0.80027765 1.5703533
0.82984632 -0.79781801 1.569694
0.73748952 -0.71992218 1.4186771
0.72644353 -0.72020739 1.4229344
0.71578169 -0.72088873 1.4279296
0.64396638 -0.65900987 1.3073082
0.61292577 -0.63751507 1.267277
0.56082535 -0.59303522 1.1806302
0.54739976 -0.58863771 1.174539
0.48421252 -0.52965695 1.0577648
0.45340404 -0.50464737 1.0093911
0.44075093 -0.49931332 1.0007937
0.43395624 -0.50054294 1.0054957
0.42326322 -0.4972384 1.0009001
0.41885826 -0.5013355 1.0113957
0.40283263 -0.49141407 0.99311477
0.39340338 -0.48930842 0.99078447
0.38305539 -0.48595321 0.98582286
0.37695271 -0.48795664 0.99185675
0.36796716 -0.48623407 0.99016076
0.36086807 -0.48698404 0.99353498
0.35404089 -0.48814142 0.9977209
0.34687907 -0.48887858 1.0010018
0.33968949 -0.48960915 1.0042347
0.32965964 -0.48618478 0.99876612
0.31065762 -0.46905088 0.9645915
0.32386523 -0.50089896 1.0327638
0.30069759 -0.4766736 0.98358554
0.29412842 -0.47819391 0.98825282
0.28676006 -0.47846067 0.99025613
0.27840751 -0.47705543 0.98870319
0.27293247 -0.48063964 0.99762005
0.26619232 -0.48213679 1.0021139
0.26432174 -0.49280059 1.0259478
0.25581932 -0.49137112 1.0242128
0.25283566 -0.50078338 1.0453969
0.24526773 -0.5014292 1.0479971
0.23411703 -0.49454981 1.0345836
0.2266192 -0.49517891 1.0370573
0.21780546 -0.49287507 1.0332543
0.2104862 -0.49390778 1.0365086
0.20278837 -0.49409732 1.0379306
0.19640328 -0.49762806 1.0464442
0.18704952 -0.49361801 1.0388271
0.18922676 -0.52100933 1.0982778
0.18472268 -0.53165317 1.1219581
0.17182039 -0.5179891 1.093591
0.16662832 -0.52736574 1.1145045
0.15774131 -0.5254184 1.1111265
0.14950974 -0.52555948 1.1121829
0.14296295 -0.5319863 1.126693
0.13515092 -0.53421205 1.1321541
0.12746644 -0.53727055 1.1393695
0.1163364 -0.52520877 1.1140347
0.10705239 -0.52027297 1.1039644
0.098959483 -0.52078766 1.105576
0.090629466 -0.52003473 1.1044188
0.0851859 -0.53733945 1.1421192
0.076017179 -0.53237176 1.1318099
0.068605416 -0.54000205 1.1486086
0.058099229 -0.52198917 1.1100847
0.050087094 -0.52414048 1.114988
0.041805331 -0.52376235 1.1143969
0.033588864 -0.52421749 1.1155628
0.024951324 -0.51625687 1.0985299
0.016810779 -0.51585567 1.0977662
0.0086614955 -0.51418573 1.0942247
0.00057080691 -0.51797384 1.1024222
-0.0075713363 -0.51712978 1.1005837
-0.015520609 -0.5108127 1.086895
-0.023445191 -0.50827229 1.0813181
-0.031107271 -0.50278199 1.0693388
-0.038334966 -0.49392214 1.0500557
-0.047441352 -0.50817442 1.0805876
-0.055757392 -0.51106912 1.0865779
-0.063848786 -0.51143432 1.0870731
-0.070651032 -0.50254786 1.0675912
-0.075530723 -0.48315319 1.0254449
-0.085943483 -0.49946287 1.0601795
-0.090477981 -0.48174024 1.0215902
-0.10086522 -0.49551108 1.0507588
-0.1068956 -0.48743775 1.0328836
-0.11474277 -0.48817548 1.0339271
-0.12176937 -0.48554859 1.0277029
-0.12938263 -0.48543319 1.0268397
-0.13805592 -0.48908594 1.0340242
-0.14584178 -0.489375 1.0339481
-0.14916219 -0.47540298 1.0032748
-0.15977643 -0.48490199 1.0228631
-0.16808169 -0.48684675 1.0262203
-0.1753868 -0.4858512 1.0232471
-0.22130346 -0.58742976 1.2393349
-0.22932018 -0.58429271 1.2315284
-0.2563647 -0.62800944 1.3235855
-0.26473138 -0.62442392 1.3146607
-0.25625414 -0.58278769 1.2247324
-0.25161627 -0.5524599 1.1589769
-0.2222158 -0.4716053 0.98602384
-0.23340236 -0.47933131 1.0012951
-0.24314685 -0.48370454 1.009388
-0.2530233 -0.48806676 1.0173973
-0.26681724 -0.49950576 1.0403019
-0.27385694 -0.49800718 1.0357976
-0.27519146 -0.48650599 1.0101756
-0.28439596 -0.48916411 1.0143875
-0.29740506 -0.49805352 1.0316445
-0.3055861 -0.4986085 1.0313127
-0.3124733 -0.49707747 1.0265647
-0.32171747 -0.49927905 1.0295987
-0.32252941 -0.48860162 1.0056642
-0.33226183 -0.49162054 1.010337
-0.32917818 -0.47597077 0.97606242
-0.35257393 -0.49845305 1.0211543
-0.34910575 -0.48280418 0.98688799
-0.36563775 -0.49489257 1.0101761
-0.37660384 -0.49910024 1.0170327
-0.38705534 -0.50246781 1.0220827
-0.39046225 -0.49673858 1.0083183
-0.39765906 -0.49596116 1.0047439
-0.40347764 -0.49352777 0.99773628
-0.44869581 -0.53846884 1.0877646
-0.4414373 -0.51993501 1.0476002
-0.47843301 -0.55325073 1.1133339
-0.50628948 -0.57499564 1.1551776
-0.58190173 -0.64926046 1.3034679
-0.6814332 -0.74718857 1.4989971
-0.71199733 -0.76745415 1.5365207
-0.74276763 -0.78726178 1.5728692
-0.7517395 -0.78369427 1.5619192
-0.8116172 -0.83245462 1.6560047
-0.82679164 -0.83454317 1.656067
-0.85187089 -0.84640759 1.6755717
-0.84811193 -0.82969451 1.6379414
-0.86371475 -0.83214253 1.6384996
-0.86651105 -0.82236338 1.6147283
-0.89291364 -0.83494586 1.6352019
-0.89058393 -0.82068592 1.6025543
-0.90925682 -0.82591146 1.6083049
-0.890055 -0.7970717 1.5471518
-0.94517154 -0.83466274 1.6161126
-0.91872442 -0.8001833 1.544117
-0.94109035 -0.80857641 1.5557643
-0.94511932 -0.80120075 1.5367025
-0.92290598 -0.77206618 1.4756446
-0.90032589 -0.74338615 1.415753
-0.96469676 -0.78631508 1.4935749
-0.95193952 -0.76608634 1.4499965
-0.97592896 -0.77556622 1.4632534
-0.94097191 -0.73854607 1.3879735
-0.9642818 -0.74760383 1.4003719
-0.96435481 -0.73864484 1.3785957
-0.96204638 -0.72809702 1.3538941
-0.96847725 -0.72433388 1.3419931
-1.0113823 -0.74762005 1.3805981
-0.95485622 -0.69771612 1.282667
0.95384538 -0.69878626 1.2556517
0.95576936 -0.70823747 1.2776403
0.95795178 -0.71810204 1.3004643
1.0685637 -0.81043524 1.4750332
1.0769384 -0.82650244 1.510005
1.0968479 -0.85191548 1.5624367
1.1480347 -0.90253669 1.6619848
1.1768584 -0.93660915 1.7312517
1.1577518 -0.93291056 1.7302052
1.1611886 -0.94751346 1.7634014
1.1345812 -0.93766075 1.7506459
1.1292012 -0.94532323 1.7707955
1.0975529 -0.93090725 1.7491167
1.103912 -0.94877321 1.7885765
1.1026862 -0.96051455 1.8164928
1.0704409 -0.94518739 1.7926909
1.0574201 -0.94664562 1.8008457
1.0588294 -0.96124494 1.8342304
1.026723 -0.94539994 1.808954
1.0109308 -0.94433546 1.8120332
1.0042881 -0.95191228 1.8317959
0.97637844 -0.93925655 1.8121964
0.9403528 -0.91829211 1.7761803
0.92703009 -0.91919446 1.7826492
0.92394412 -0.93043339 1.8093271
0.90754956 -0.9284144 1.8099767
0.88441318 -0.91932231 1.7965921
0.86663687 -0.91559535 1.7936468
0.76692271 -0.82373655 1.6160444
0.75101173 -0.82030261 1.6130557
0.72769499 -0.80852216 1.5933623
0.63800144 -0.72128701 1.4230227
0.61864597 -0.7118786 1.4073982
0.58174652 -0.68157411 1.34978
0.5338341 -0.63700712 1.2632196
0.5229969 -0.63583493 1.2635171
0.50171965 -0.62168151 1.2375907
0.44407114 -0.56102353 1.1175842
0.43049479 -0.55473387 1.1070617
0.42443407 -0.55806977 1.1159598
0.40201133 -0.53958333 1.0805162
0.37921771 -0.51980299 1.0422591
0.37351263 -0.52309602 1.0508475
0.36329743 -0.52007878 1.0465331
0.33966169 -0.49727634 1.001689
0.34003267 -0.5093779 1.0281572
0.32849747 -0.50379503 1.0183775
0.31900421 -0.50114805 1.0145552
0.31063399 -0.50017732 1.0141267
0.29743361 -0.49118033 0.99710745
0.28649476 -0.48554346 0.98693138
0.27693644 -0.48200536 0.98102266
0.27078974 -0.48437354 0.98728198
0.26755527 -0.49223447 1.0049015
0.25916228 -0.49078804 1.0032078
0.2542811 -0.49610576 1.0155239
0.25028649 -0.50353867 1.0322289
0.23708387 -0.49232864 1.0100987
0.23271538 -0.49932811 1.0258487
0.2252634 -0.49996546 1.0283105
0.21741961 -0.49974754 1.0289491
0.20779881 -0.49527812 1.0206542
0.19968461 -0.49419451 1.0193917
0.18978554 -0.48843089 1.008278
0.18307252 -0.49072868 1.0140148
0.17324686 -0.48452044 1.0018636
0.17044507 -0.49828345 1.0316176
0.16291176 -0.49886408 1.0336583
0.15403496 -0.49518365 1.0266951
0.14564683 -0.49277049 1.0223515
0.13792719 -0.49247715 1.0224301
0.12987675 -0.49089915 1.0197612
0.1201762 -0.4824996 1.0026574
0.11172836 -0.47834864 0.99446553
0.10712365 -0.49123085 1.0222058
0.0989253 -0.48834434 1.0166124
0.094642036 -0.5059076 1.0542116
0.083231688 -0.48510465 1.0106554
0.075458422 -0.48347348 1.0075933
0.067974448 -0.48354045 1.0080862
0.060594201 -0.48445332 1.0103335
0.053091444 -0.4845064 1.0107241
0.046750117 -0.49692222 1.037267
0.038079336 -0.48459154 1.0113506
0.030678285 -0.48633006 1.0152026
0.023060616 -0.48464867 1.0117707
0.015535903 -0.48424006 1.0109991
0.0080308141 -0.48425102 1.01108
0.00053370971 -0.4919349 1.0273889
-0.007016981 -0.48681197 1.0165136
-0.014446952 -0.48296213 1.0083007
-0.021834772 -0.48081192 1.0036545
-0.029285459 -0.48078805 1.0034789
-0.036669675 -0.47990406 1.0014443
-0.044378698 -0.48285216 1.0074921
-0.055156011 -0.51351589 1.0722008
-0.063213065 -0.51431352 1.0736002
-0.07064461 -0.51041311 1.0650151
-0.075395145 -0.48987857 1.021198
-0.082253128 -0.4855417 1.0116366
-0.090394214 -0.48887119 1.018255
-0.096843451 -0.48324353 1.0058997
-0.10495692 -0.48613209 1.0115083
-0.1129609 -0.48816049 1.0152576
-0.12071034 -0.48890334 1.0162523
-0.12948637 -0.4934707 1.0252733
-0.13757332 -0.49504906 1.0279452
-0.14533226 -0.49534273 1.0278689
-0.15138969 -0.49009848 1.0160981
-0.16073245 -0.49548286 1.026659
-0.16619211 -0.48895183 1.0121243
-0.17446937 -0.49091858 1.0154172
-0.23134224 -0.62374431 1.2932054
-0.24683292 -0.63881499 1.3236313
-0.25612774 -0.63730663 1.3192308
-0.2611208 -0.62560385 1.2934588
-0.27364838 -0.63214427 1.3058155
-0.27058932 -0.60347116 1.2445734
-0.22948287 -0.4946954 1.0163475
-0.23481162 -0.48981714 1.0050304
-0.25864184 -0.5226298 1.0721285
-0.25149307 -0.49275219 1.0087301
-0.25722501 -0.4891293 0.99994415
-0.26948246 -0.49776721 1.0165573
-0.27069992 -0.48609963 0.99104351
-0.27808756 -0.48584369 0.9891513
-0.2869525 -0.4881143 0.99243861
-0.29995605 -0.49712726 1.0095755
-0.31166196 -0.50359201 1.0213728
-0.32061723 -0.50540495 1.023528
-0.31730261 -0.48825091 0.98670322
-0.33419475 -0.50226516 1.0138193
-0.38845941 -0.57053047 1.1517889
-0.42984051 -0.61725587 1.2452571
-0.42296478 -0.59415817 1.1959928
-0.45601138 -0.62693059 1.2605548
-0.47257671 -0.63614953 1.2769779
-0.48400453 -0.63821727 1.2787803
-0.53115612 -0.68636465 1.3737799
-0.58667725 -0.74322432 1.4859502
-0.61290145 -0.76149428 1.5198126
-0.68973452 -0.84076458 1.6761975
-0.6830107 -0.81713045 1.6252493
-0.70969099 -0.83359289 1.6547706
-0.72889256 -0.84083939 1.6656595
-0.73101336 -0.82847315 1.6372935
-0.7406078 -0.82485789 1.6263885
-0.74970329 -0.82081878 1.6146092
-0.77333838 -0.83256775 1.6340809
-0.80161846 -0.84884977 1.6623358
-0.8534596 -0.88915247 1.7377295
-0.84945488 -0.87091732 1.6975303
-0.87075526 -0.87879127 1.7086635
-0.86353958 -0.85808671 1.6637256
-0.86119789 -0.84277999 1.629465
-0.86867726 -0.83739817 1.6146148
-0.88206506 -0.8377865 1.6109568
-0.89456671 -0.83733416 1.6056015
-0.90302277 -0.83316213 1.5930049
-0.91812247 -0.83515102 1.5922488
-0.9447093 -0.84738827 1.6110767
-0.94472677 -0.83578455 1.5840763
-0.92748898 -0.80943573 1.5290101
-0.95655185 -0.82365835 1.551361
-0.96145546 -0.81697756 1.5338434
-0.93060172 -0.78048122 1.4599814
-0.95043629 -0.78688759 1.4673406
-0.94750279 -0.7745201 1.4393021
-0.96436733 -0.7784434 1.4418545
-0.9537921 -0.76039374 1.4033045
-0.99681312 -0.7849918 1.4442257
-0.91440398 -0.71141124 1.3028505
-0.97950208 -0.75297832 1.3749952
-0.95578331 -0.72609365 1.3205947
-0.95442706 -0.71662551 1.298427
-0.92671567 -0.68781418 1.2410017
0.96601647 -0.71867144 1.2683147
0.95205241 -0.71641755 1.2690631
1.0785228 -0.82101554 1.4620123
1.0850239 -0.83567375 1.4938438
1.1158658 -0.86965054 1.5608219
1.1421118 -0.90082049 1.6230701
1.1453099 -0.91434991 1.653453
1.1185304 -0.90398568 1.6401811
1.1414412 -0.93402308 1.7009573
1.1071466 -0.91741806 1.6760402
1.1837212 -0.99343419 1.822178
1.1378089 -0.96729255 1.779582
1.1272687 -0.97092986 1.7920406
1.1132737 -0.97164899 1.7990199
1.0950065 -0.96860838 1.7988929
1.0814438 -0.96970302 1.8064275
1.0719537 -0.9745304 1.8209352
1.063664 -0.98060036 1.8377711
1.0413399 -0.97372031 1.8300551
1.0183091 -0.96597081 1.8205382
0.988958 -0.95191014 1.7988366
0.9792822 -0.95665079 1.8128455
0.95634705 -0.94838583 1.8019083
0.94405025 -0.95057887 1.8109062
0.90990168 -0.93049407 1.7769405
0.90424174 -0.93936765 1.7986263
0.93977737 -0.99201238 1.905063
0.86737144 -0.9305743 1.790529
0.83963287 -0.91581059 1.7661418
0.83665711 -0.92801374 1.7941293
0.77453989 -0.87390822 1.6925616
0.75595766 -0.86788756 1.6846321
0.73934811 -0.86395729 1.6806855
0.71465522 -0.85026705 1.6574352
0.69734466 -0.84501612 1.6506416
0.67467993 -0.83295697 1.6302868
0.64325029 -0.80940574 1.5870171
0.62210256 -0.79812336 1.5678334
0.56521952 -0.73962808 1.4546603
0.58523422 -0.78142536 1.540699
0.52999043 -0.72238338 1.4258083
0.50126922 -0.6977514 1.3792025
0.48885426 -0.69524044 1.3766571
0.47650617 -0.69271541 1.3740109
0.46451283 -0.69060314 1.3721224
0.39810893 -0.60562104 1.203393
0.39322194 -0.61240554 1.219033
0.37258065 -0.59438723 1.1845949
0.35534906 -0.58104491 1.1594522
0.34897703 -0.58523101 1.1696775
0.33650142 -0.5791325 1.1590258
0.30601686 -0.54087472 1.082986
0.29036513 -0.527439 1.0571653
0.27832672 -0.51998764 1.0434157
0.26360622 -0.50694096 1.0181781
0.26423004 -0.52350622 1.0532836
0.25341639 -0.51773751 1.0427839
0.24114195 -0.50851691 1.0251528
0.23368116 -0.50917155 1.0276692
0.2261973 -0.50981933 1.0301354
0.21647801 -0.50529528 1.0219476
0.20920482 -0.50635761 1.0251821
0.20018274 -0.503106 1.0195082
0.19175079 -0.50113732 1.0164245
0.18416753 -0.50131518 1.0177188
0.17900552 -0.508385 1.0331907
0.1694133 -0.50294334 1.0228211
0.16262004 -0.50568891 1.0293092
0.15270047 -0.49850193 1.0152324
0.14387652 -0.49432567 1.0073252
0.13767853 -0.49920851 1.0181237
0.12964223 -0.49760747 1.0154655
0.12271255 -0.500319 1.0217049
0.11371075 -0.49438146 1.0099746
0.10637324 -0.49535006 1.0125246
0.098401129 -0.4932856 1.0087423
0.091526121 -0.49683446 1.0165783
0.083007328 -0.49129537 1.0054989
0.075387493 -0.49050534 1.0042455
0.067790769 -0.48970801 1.0029389
0.059951041 -0.48674008 0.99707955
0.05294814 -0.49068776 1.0055691
0.044942148 -0.4851087 0.99419934
0.038344931 -0.49553454 1.0161037
0.030676315 -0.49383599 1.0127369
0.022998367 -0.4908317 1.0066133
0.015507615 -0.49084997 1.0067456
0.0080373995 -0.49215969 1.0095308
0.00052627095 -0.49259663 1.0104617
-0.0073175849 -0.51553506 1.0582159
-0.014446114 -0.49041909 1.0058587
-0.021911018 -0.48996904 1.0048324
-0.029283874 -0.48821345 1.0010515
-0.036928274 -0.49077889 1.0062302
-0.045707818 -0.50502115 1.0356724
-0.053868417 -0.50930136 1.0443355
-0.064043857 -0.52914912 1.0853399
-0.07046026 -0.51697147 1.0596817
-0.075717606 -0.49959889 1.0232012
-0.082320116 -0.49346876 1.0100721
-0.089443177 -0.49122515 1.004989
-0.097349674 -0.49329853 1.0088365
-0.1038474 -0.48844799 0.99827367
-0.1135441 -0.49828586 1.0181509
-0.12017674 -0.49428618 1.0092827
-0.12914149 -0.49978441 1.0200646
-0.13957137 -0.51002318 1.0406101
-0.14557002 -0.50384289 1.0271164
-0.15347952 -0.50456476 1.0278734
-0.16071934 -0.50312138 1.0241162
-0.16776863 -0.50124031 1.0194216
-0.19332075 -0.55239314 1.1240954
-0.22120623 -0.60565948 1.2329066
-0.24528953 -0.64465976 1.3121024
-0.25759214 -0.65088457 1.323673
-0.26760116 -0.65106672 1.32275
-0.28036389 -0.65769577 1.3350133
-0.25855684 -0.58557361 1.1856716
-0.25677174 -0.56210101 1.136277
-0.24676724 -0.52273482 1.0544177
-0.27368516 -0.56159884 1.1326208
-0.28406709 -0.56520116 1.1385971
-0.30077738 -0.58081144 1.1689986
-0.30468434 -0.5715121 1.1485437
-0.33135471 -0.60424042 1.2135746
-0.35030264 -0.62149543 1.2469516
-0.36678529 -0.63358212 1.2697005
-0.37573716 -0.63237345 1.2654022
-0.40889961 -0.67095166 1.3415264
-0.45095277 -0.72187698 1.4422964
-0.50162631 -0.7838434 1.5649534
-0.51775157 -0.79019523 1.5752052
-0.58271205 -0.86909384 1.7311447
-0.5941295 -0.86640018 1.7227949
-0.61023915 -0.87051755 1.7280365
-0.62463015 -0.8720597 1.7280326
-0.64528537 -0.88210076 1.7449095
-0.6528824 -0.874246 1.7259969
-0.69619781 -0.91357654 1.8008839
-0.69905162 -0.89930999 1.7690487
-0.69878376 -0.88165426 1.7305425
-0.6952458 -0.86061782 1.6854264
-0.70573306 -0.85740077 1.6755563
-0.71504933 -0.8529042 1.6631274
-0.73975444 -0.86659592 1.6863868
-0.76080441 -0.87559986 1.7002754
-0.77836782 -0.8803497 1.7056996
-0.76264918 -0.84793437 1.638521
-0.79997998 -0.87459844 1.6865358
-0.8000617 -0.86033213 1.6547776
-0.83791357 -0.88648623 1.7013639
-0.84944004 -0.88440025 1.6930779
-0.86335087 -0.88482314 1.6895778
-0.85562801 -0.86340284 1.6440231
-0.90170908 -0.89610159 1.7023576
-0.93629563 -0.91657084 1.7369106
-0.8981216 -0.86625814 1.6362278
-0.8950069 -0.85073048 1.6021429
-0.92664731 -0.86821002 1.63074
-0.92218262 -0.85184556 1.5950973
-0.93782544 -0.85425162 1.5949529
-0.97436666 -0.87536675 1.6298815
-0.93829262 -0.83155584 1.5428431
-0.93897158 -0.82105184 1.5184629
-0.95376009 -0.8229996 1.5173324
-0.94036692 -0.80089486 1.4714645
-0.97064084 -0.81607062 1.4947884
-0.96147931 -0.79812634 1.4567795
-0.96388936 -0.79011667 1.4371938
-0.94976228 -0.76891667 1.3934801
-0.93606424 -0.74857712 1.3515455
-0.94156933 -0.74389988 1.3383137
-0.91010112 -0.7104708 1.2729506
-0.91438878 -0.70541334 1.2592313
-0.91744447 -0.699534 1.244049
nan nan nan
0.95621049 -0.72223365 1.2517132
0.96135187 -0.73445648 1.2779742
1.0623326 -0.8210336 1.4357657
1.0641992 -0.83214444 1.4607493
1.07364 -0.8495127 1.4969575
1.1554943 -0.92528564 1.6376699
1.159052 -0.93944371 1.668804
1.1183853 -0.91766357 1.6353977
1.0868473 -0.90292335 1.6143674
0.94757521 -0.79717594 1.4282812
1.1189693 -0.95342427 1.716903
1.1492978 -0.99197203 1.7927556
1.1318883 -0.98978841 1.7945051
1.1164163 -0.98926353 1.7991998
1.0887296 -0.97775483 1.7836066
1.0678295 -0.97210914 1.7786328
1.0589676 -0.97741801 1.7938015
1.0476779 -0.98060411 1.8050147
1.0327108 -0.98039001 1.8098586
1.0027632 -0.96574211 1.7876785
1.0166328 -0.99348325 1.8446349
0.98259056 -0.97453296 1.8141459
0.96511167 -0.97168505 1.8137017
0.94394773 -0.96498227 1.80588
0.9254179 -0.96080524 1.8026978
0.91224623 -0.962147 1.8098714
0.89224869 -0.95621681 1.8031546
0.8720116 -0.94983155 1.7954409
0.86082327 -0.95325398 1.8063387
0.8457216 -0.95238531 1.8089745
0.84371996 -0.96649307 1.8402841
0.83946157 -0.97846472 1.8675327
0.82073909 -0.97370368 1.8625376
0.76373941 -0.92253393 1.7677257
0.74732894 -0.91940671 1.7654738
0.7512446 -0.94163918 1.8123492
0.75484389 -0.96432143 1.8602051
0.73958385 -0.96332717 1.8620216
0.68637139 -0.91187197 1.7652204
0.66614872 -0.90304083 1.7513518
0.67238081 -0.93045086 1.8083847
0.64784396 -0.9155423 1.7824436
0.60636365 -0.87552226 1.7069265
0.58890539 -0.86918092 1.6974328
0.58940589 -0.88965905 1.7407697
0.54077476 -0.83520639 1.6360165
0.52690083 -0.83312201 1.6345596
0.51093793 -0.82755268 1.6261125
0.45382625 -0.75339454 1.4813077
0.43867362 -0.7468791 1.4705802
0.42370614 -0.740345 1.4597198
0.41110525 -0.73770481 1.4565351
0.39881194 -0.73548579 1.4541204
0.34184086 -0.64839619 1.2818383
0.33426645 -0.65263885 1.2920132
0.3664076 -0.73702544 1.4629109
0.35549513 -0.73737252 1.4654001
0.32623929 -0.69846922 1.3889194
0.31430125 -0.69528824 1.3841088
0.30188099 -0.69078511 1.376567
0.29216936 -0.69237995 1.3812541
0.28187302 -0.6926558 1.3832321
0.26231822 -0.66932905 1.3374531
0.26223251 -0.69579995 1.3922793
0.24094568 -0.66587895 1.3329616
0.22858715 -0.65910786 1.3204045
0.21831457 -0.65801024 1.3192824
0.19712058 -0.62232846 1.247903
0.18372631 -0.60894239 1.2216588
0.1743703 -0.60823876 1.2211119
0.16657977 -0.6132201 1.2320822
0.15425311 -0.60110819 1.2082253
0.14461616 -0.5986228 1.2039002
0.12472424 -0.55054122 1.1066
0.11619421 -0.5493418 1.1047478
0.1076986 -0.54813403 1.1028352
0.098044075 -0.54033899 1.0874349
0.090009145 -0.54086804 1.0889772
0.080097534 -0.52910507 1.0653721
0.072871372 -0.53444362 1.0766548
0.064685352 -0.53319329 1.0744374
0.055929676 -0.5262295 1.0604975
0.048263699 -0.52891302 1.0662405
0.038776737 -0.50876307 1.0252427
0.032366075 -0.52899057 1.0667952
0.024516286 -0.53121293 1.0714816
0.016517475 -0.53079367 1.0707244
0.0085452711 -0.53124475 1.071709
0.00055672345 -0.52905387 1.0672479
-0.0074456423 -0.53256297 1.0744121
-0.015578763 -0.53694236 1.083317
-0.023591813 -0.53560638 1.0804874
-0.031590179 -0.53470182 1.0785012
-0.039398119 -0.53159481 1.0719709
-0.047268514 -0.53023624 1.0689796
-0.05532591 -0.53106481 1.0704219
-0.062727168 -0.52618039 1.0601466
-0.066858672 -0.4980334 1.0023022
-0.075186923 -0.50366902 1.0134674
-0.085268892 -0.51894659 1.0442756
-0.091481678 -0.51008892 1.0257577
-0.099558279 -0.51218987 1.0295755
-0.10705362 -0.51121366 1.0270758
-0.11579704 -0.51592886 1.0361404
-0.1235255 -0.51581389 1.0353172
-0.13403638 -0.52664495 1.0567394
-0.14994636 -0.55629843 1.1163896
-0.16125798 -0.56666028 1.1366971
-0.17025366 -0.5682525 1.1391158
-0.17805494 -0.56589651 1.1334717
-0.1875141 -0.56878412 1.1384298
-0.20504737 -0.59484297 1.190302
-0.20479433 -0.569282 1.1375011
-0.25128046 -0.6704843 1.3412373
-0.25325909 -0.64970279 1.2979603
-0.27070564 -0.66867203 1.3349913
-0.28027999 -0.66753393 1.3313301
-0.2875388 -0.66115028 1.3170514
-0.28930429 -0.64298433 1.2790303
-0.30552933 -0.65709054 1.3059375
-0.33346459 -0.69470912 1.3799553
-0.34115922 -0.68915606 1.3671333
-0.35357043 -0.69317716 1.373469
-0.36769468 -0.70023042 1.3857991
-0.38131675 -0.70596129 1.3953961
-0.39655003 -0.71428388 1.4100807
-0.41227019 -0.72302169 1.4254917
-0.43942362 -0.75084651 1.478781
-0.50829101 -0.84676975 1.6671642
-0.53566134 -0.87056422 1.711804
-0.53694224 -0.85183388 1.6719936
-0.56646472 -0.87773657 1.7205067
-0.60102475 -0.91008794 1.7815175
-0.62336892 -0.92291337 1.8037567
-0.61263877 -0.88727909 1.7304847
-0.64841783 -0.91908699 1.7898597
-0.66986609 -0.9296785 1.8073415
-0.67320192 -0.91521341 1.7756401
-0.69487923 -0.92576325 1.7928351
-0.70926303 -0.92637306 1.7905011
-0.71693069 -0.91835594 1.771307
-0.70210403 -0.88237214 1.6978048
-0.71271628 -0.87910038 1.6879034
-0.72606003 -0.87925559 1.6845868
-0.74083936 -0.88111264 1.6844841
-0.75015432 -0.87651956 1.6718812
-0.75708604 -0.86934853 1.6542991
-0.78920925 -0.89085692 1.6916687
-0.82270217 -0.91316783 1.7303119
-0.81023628 -0.88457108 1.6715949
-0.83549953 -0.89742339 1.6919299
-0.84133941 -0.88933575 1.6723368
-0.85922152 -0.89403111 1.6769505
-0.87472701 -0.89614719 1.6765804
-0.89912778 -0.90717393 1.6929011
-0.90244645 -0.89691818 1.6690729
-0.9180305 -0.89897525 1.668342
-0.90421683 -0.87260264 1.6144222
-0.92215532 -0.87718821 1.6183722
-0.91764551 -0.86059183 1.5828693
-0.94419122 -0.87317663 1.6015171
-0.93079776 -0.84898752 1.552068
-0.94905651 -0.85393256 1.5564511
-0.95984024 -0.85210955 1.5482961
-0.94558167 -0.82839584 1.5000527
-0.93454266 -0.80808234 1.4582218
-0.97455889 -0.83187032 1.4967344
-0.97242397 -0.8195318 1.4694518
-0.98854721 -0.82269681 1.4702544
-0.96505344 -0.79322076 1.4122138
-0.98652178 -0.80096936 1.4212445
-0.8943072 -0.71734369 1.2667983
-0.91597521 -0.72596997 1.2776607
-0.90439487 -0.70835209 1.2417859
-0.93793452 -0.72607231 1.2685789
nan nan nan
nan nan nan
1.0318848 -0.80019367 1.3689096
1.0450819 -0.81984335 1.4081413
1.106086 -0.87789971 1.5144986
1.072489 -0.86135906 1.4910619
1.131893 -0.92001224 1.5993357
1.1372356 -0.93561774 1.6324514
1.1177088 -0.93089557 1.6297677
1.1143898 -0.93972272 1.6509892
1.0963784 -0.93622696 1.6503255
1.0848329 -0.93823385 1.6593775
1.16074 -1.0169089 1.8056839
1.1480092 -1.0189769 1.815196
1.11051 -0.99882287 1.7846113
1.1162122 -1.0175056 1.8239346
1.0815505 -0.99940175 1.79669
1.0738868 -1.006089 1.8142601
1.0569891 -1.0041918 1.8161714
1.0401229 -1.0022703 1.8179452
1.0232891 -1.0003253 1.8195815
1.0060555 -0.99792659 1.8202895
0.97046947 -0.97698075 1.7866881
0.9641363 -0.98529559 1.8069224
0.97044992 -1.0069889 1.8519748
0.95974481 -1.0114244 1.8650763
0.90971512 -0.97390139 1.7999345
0.88737631 -0.96529162 1.7883949
0.86604619 -0.95751494 1.7782638
0.86498064 -0.97225708 1.8102746
0.84184253 -0.96226871 1.7957958
0.85110182 -0.98960561 1.8515736
0.82429707 -0.9752329 1.8286455
0.81125444 -0.97691989 1.8359559
0.80241305 -0.98381931 1.8531058
0.78498614 -0.98025262 1.8503175
0.77004761 -0.97971755 1.8532082
0.75948822 -0.98484051 1.8668334
0.74050993 -0.97903317 1.8594918
0.7349779 -0.99112648 1.8863794
0.72018588 -0.99097109 1.8897334
0.70320517 -0.98773479 1.8870769
0.68630618 -0.98447824 1.8842831
0.67128479 -0.98383212 1.8864378
0.64895046 -0.97220176 1.8672426
0.63811564 -0.97766209 1.8810478
0.59460932 -0.9321574 1.7957891
0.5932138 -0.95207494 1.8374914
0.5733099 -0.94253421 1.8218246
0.55654615 -0.93780857 1.8154283
0.53099298 -0.91765153 1.7787622
0.51471066 -0.91287798 1.7720311
0.50606191 -0.92175072 1.7919621
0.48513159 -0.90812546 1.7676973
0.46092322 -0.88741183 1.7293552
0.4377566 -0.86754704 1.6925099
0.40218198 -0.82114685 1.6031947
0.38642597 -0.81357914 1.5902293
0.37475088 -0.81439257 1.5937271
0.36028883 -0.80900246 1.5848961
0.34978968 -0.81244582 1.5934736
0.33531997 -0.80658364 1.5835582
0.3263438 -0.81399089 1.5998902
0.30842179 -0.79879707 1.5712972
0.28995389 -0.78092092 1.5372536
0.2762742 -0.77499104 1.5268598
0.27397865 -0.80186552 1.5817261
0.26363826 -0.80656338 1.5924165
0.24401578 -0.78196234 1.5446112
0.22828111 -0.7679891 1.5178907
0.22323896 -0.79040867 1.5637829
0.21099503 -0.78839982 1.5608399
0.19701034 -0.77926999 1.5435872
0.18466729 -0.77590138 1.5377874
0.17073463 -0.76496369 1.5167623
0.15953137 -0.76556927 1.5187894
0.14658658 -0.75727063 1.5029091
0.13555467 -0.75829762 1.5056635
0.12157344 -0.74152112 1.4726375
0.10921468 -0.73229152 1.4546806
0.097008005 -0.72215885 1.4348429
0.08797203 -0.73604357 1.463186
0.076892927 -0.73434383 1.4601766
0.063942514 -0.71126842 1.4141498
0.053446051 -0.71177077 1.4154482
0.04237058 -0.70291448 1.3978786
0.031496204 -0.69271147 1.3775446
0.020937363 -0.68294269 1.3580288
0.011147482 -0.70343798 1.3993262
0.00067388319 -0.65001774 1.2919165
-0.0088733817 -0.6442259 1.2802478
-0.018490618 -0.64688385 1.2855259
-0.027915707 -0.64329958 1.278204
-0.034435716 -0.59162825 1.1741508
-0.039197467 -0.53683817 1.0638146
-0.041945376 -0.47759718 0.94453251
-0.046730258 -0.45529962 0.89950299
-0.06162113 -0.52467316 1.0386217
-0.065970048 -0.4988015 0.98634142
-0.077207938 -0.52498275 1.0385602
-0.089002825 -0.54981428 1.0879941
-0.097208358 -0.55016828 1.0882459
-0.10542282 -0.55051416 1.0884405
-0.11382931 -0.55174112 1.09036
-0.12256514 -0.55429322 1.0948907
-0.13357621 -0.56616855 1.1180401
-0.14148211 -0.56425703 1.1135361
-0.15959145 -0.60098237 1.1862488
-0.17056392 -0.60837162 1.2002035
-0.18437223 -0.62462687 1.2317958
-0.1965927 -0.6342063 1.2499751
-0.20678645 -0.63667214 1.2538962
-0.22021267 -0.64844126 1.2762942
-0.21983878 -0.62028891 1.2191498
-0.25332844 -0.6861105 1.3489245
