# .PCD v0.7 - Point Cloud Data file format
VERSION 0.7
FIELDS x y z
SIZE 4 4 4
TYPE F F F
COUNT 1 1 1
WIDTH 1447
HEIGHT 1
VIEWPOINT 0 0 0 1 0 0 0
POINTS 1447
DATA ascii
-0.98508358 -0.3962447 1.9954895
-1.0052167 -0.39830187 2.0009925
-1.0143423 -0.39600107 1.9843556
-1.0282573 -0.39560971 1.9773142
-1.0380088 -0.39365062 1.9623259
-1.0610552 -0.39671758 1.9724935
-1.0805398 -0.39838612 1.97551
-1.0839444 -0.39416155 1.9490299
-1.1077561 -0.39737168 1.9595362
-1.098599 -0.38882744 1.9116178
-1.0829058 -0.37822545 1.8536931
-1.0994455 -0.37901068 1.8521041
-1.0775883 -0.36670905 1.786124
-1.0799342 -0.36285129 1.7617893
-1.0871708 -0.36071271 1.7458913
-1.0984275 -0.35994434 1.7366554
-1.075217 -0.34803796 1.6733278
-1.0848793 -0.3469311 1.6625332
-1.0614609 -0.33539778 1.601442
-1.0705791 -0.33429596 1.5907716
-1.084572 -0.3347241 1.5873975
-1.0935497 -0.3336125 1.5765961
1.3297712 -0.41552514 1.8857828
1.3365024 -0.422425 1.9241275
1.3239659 -0.42332447 1.934968
1.3097031 -0.42368671 1.9432738
1.2953911 -0.42404136 1.9514759
1.2949545 -0.42900142 1.9810405
1.2978774 -0.43520877 2.0164976
1.2647423 -0.42932907 1.9954454
1.2304159 -0.42289305 1.9715229
1.2297841 -0.42802143 2.0018334
1.2080325 -0.4258365 1.9976364
1.2124244 -0.43293002 2.0372882
1.1841847 -0.42840493 2.0218041
1.1752769 -0.4308461 2.0393341
1.1507461 -0.42754865 2.0294008
1.1330876 -0.42674926 2.031276
1.1248733 -0.4295339 2.050282
1.1057713 -0.42818099 2.0493255
1.0839928 -0.42573828 2.0429807
1.0551261 -0.42040053 2.0224574
1.0462348 -0.42298192 2.0402031
1.0257113 -0.42086732 2.0350509
1.0057496 -0.41892275 2.0305951
0.99531513 -0.42094776 2.0454447
0.98051167 -0.42115936 2.0513601
0.9449119 -0.41230336 2.0125971
0.94059002 -0.41702974 2.040513
0.92948335 -0.4188534 2.0541103
0.89443862 -0.40977108 2.0136619
0.88460124 -0.41212499 2.0296896
0.86344951 -0.40919805 2.0194256
0.85382193 -0.41172558 2.0362017
0.83769196 -0.41115177 2.0374641
0.82378095 -0.41166604 2.0440788
0.79941708 -0.40687913 2.0240524
0.78524387 -0.40719637 2.0294881
0.76999933 -0.40695944 2.0320642
0.75408131 -0.4063504 2.0326822
0.74119496 -0.40738332 2.041502
0.73443609 -0.41189483 2.0678558
0.70684373 -0.4046669 2.0347347
0.6957621 -0.40678504 2.0488424
0.67898667 -0.40559393 2.0460885
0.66288793 -0.40476313 2.0450733
0.64418769 -0.40227011 2.0354948
0.62651885 -0.40032035 2.0285771
0.61348403 -0.40130925 2.036582
0.59954572 -0.40174082 2.0416732
0.58127278 -0.39921698 2.0315423
0.56264699 -0.39631543 2.0193644
0.5278753 -0.38158992 1.9462897
0.51131207 -0.37958747 1.9384419
0.5147475 -0.3927322 2.0085618
0.50074369 -0.39294168 2.0120313
0.47893035 -0.38685539 1.9829117
0.43196541 -0.35947043 1.8435112
0.35220689 -0.30223677 1.5492171
0.33260149 -0.29459903 1.5112588
0.32103276 -0.29380846 1.5086864
0.30873266 -0.29227114 1.5021762
0.29956639 -0.2936967 1.5109982
0.28755483 -0.292335 1.5052832
0.27546126 -0.29078224 1.4985098
0.26652139 -0.29256752 1.5090655
0.25501126 -0.29156253 1.5050346
0.24466079 -0.2918537 1.5077095
0.23428582 -0.29214069 1.5103146
0.22331707 -0.29167941 1.5089608
0.21292134 -0.29195789 1.5114222
0.20224443 -0.29185978 1.5118653
0.19181618 -0.29212955 1.514184
0.18067262 -0.29127768 1.5105786
0.17013201 -0.29135236 1.5117755
0.15937947 -0.29104996 1.5109459
0.14855129 -0.29055661 1.509064
0.13828792 -0.29117703 1.5129769
0.1268328 -0.28918296 1.5031151
0.11634564 -0.289235 1.5039445
0.10585304 -0.28928256 1.5047023
0.095847368 -0.29081804 1.5132331
0.085127115 -0.29029721 1.5109082
0.074203841 -0.28883874 1.5036029
0.063591309 -0.28830856 1.5011287
0.053360276 -0.28964004 1.5083996
0.042617802 -0.2881676 1.5008714
0.032356605 -0.29005015 1.5109488
0.021831902 -0.29024842 1.5121156
0.011256333 -0.28950891 1.508299
0.00073591754 -0.28932485 1.5073575
-0.0097961985 -0.28988287 1.5102739
-0.020276919 -0.28912976 1.5062418
-0.030881278 -0.29005203 1.5109786
-0.041285474 -0.28910327 1.5058217
-0.051686805 -0.28852338 1.5025587
-0.062447138 -0.28980517 1.5090414
-0.073111497 -0.29033592 1.5115236
-0.083544269 -0.28992909 1.5090268
-0.094248727 -0.29045066 1.5113627
-0.10438368 -0.28928888 1.5048028
-0.11524732 -0.29017434 1.5089532
-0.1260924 -0.29086861 1.5120475
-0.13672295 -0.29099885 1.5121299
-0.14754936 -0.29149732 1.5140947
-0.15790398 -0.2910594 1.5110974
-0.17286129 -0.29862788 1.550023
-0.23224629 -0.3775202 1.9625455
-0.25014398 -0.38393539 1.9950389
-0.26478827 -0.38494304 1.9991297
-0.27707544 -0.38259476 1.9855963
-0.29357451 -0.38600907 2.0021322
-0.31001902 -0.38904342 2.0165935
-0.32559323 -0.39076859 2.0241325
-0.34047872 -0.39155757 2.0267081
-0.35356462 -0.3902967 2.0185275
-0.36865395 -0.39125937 2.0218675
-0.38017407 -0.3885031 2.0057833
-0.39525646 -0.38945422 2.0089266
-0.4121559 -0.39206803 2.020627
-0.42621237 -0.39189318 2.0177648
-0.44087467 -0.39226863 2.0176876
-0.45964 -0.39615697 2.0357244
-0.47114545 -0.39374194 2.0210474
-0.48155886 -0.39058346 2.0024867
-0.49385223 -0.38908708 1.9924687
-0.51544285 -0.39479503 2.0195329
-0.52553356 -0.39162418 2.0007463
-0.54378825 -0.39454389 2.0132444
-0.55571711 -0.39284182 2.001899
-0.57474142 -0.39611521 2.0160205
-0.58439577 -0.39292863 1.99694
-0.60532182 -0.39729202 2.0164447
-0.6187951 -0.39667457 2.0103757
-0.63339031 -0.39678806 2.0079699
-0.65728861 -0.40259472 2.0344756
-0.67085534 -0.40195814 2.0280595
-0.67935866 -0.39837945 2.006645
-0.68057132 -0.39076406 1.9647582
-0.71774638 -0.40368649 2.0268247
-0.72590321 -0.40009719 2.0052047
-0.74023527 -0.39998567 2.0011041
-0.75385845 -0.39950281 1.9950603
-0.76216394 -0.39627334 1.9751521
-0.7838341 -0.39998356 1.9900221
-0.80575097 -0.4036822 2.0046868
-0.82087159 -0.40390459 2.0018396
-0.81978834 -0.39628619 1.9598289
-0.85265529 -0.40505907 1.9994279
-0.87598866 -0.40908203 2.0151904
-0.88810903 -0.40782171 2.0046198
-0.89771724 -0.4054682 1.9885927
-0.91245764 -0.40547121 1.9841596
-0.92469758 -0.40438062 1.9742659
-0.93937278 -0.40437257 1.9696317
-0.95659417 -0.40544382 1.9702041
-0.98643142 -0.41174868 1.9962412
-0.99648035 -0.40972862 1.9814752
-1.0215163 -0.41383964 1.9964839
-1.0242443 -0.408925 1.9675434
-1.0284534 -0.40473375 1.9421438
-1.0444154 -0.40522075 1.939338
-1.0646197 -0.40731725 1.9441835
-1.0954111 -0.41335127 1.9677856
-1.0866106 -0.40448424 1.9198533
-1.1118214 -0.40834543 1.932806
-1.1120967 -0.4030672 1.9020951
-1.1174958 -0.39975923 1.8807974
-1.1054697 -0.39038268 1.8308142
-1.0759279 -0.37513658 1.7533476
-1.061395 -0.36543962 1.7023306
-1.0718365 -0.36447468 1.6924424
-1.0874835 -0.36528185 1.6907899
-1.0812382 -0.35880467 1.6551288
-1.0610365 -0.34790564 1.5990759
-1.0734276 -0.34782436 1.5933251
-1.0747517 -0.3442007 1.5711824
-1.0908778 -0.3453463 1.5709976
1.3089106 -0.42386881 1.8538589
1.3331513 -0.4366771 1.917102
1.3101513 -0.43412933 1.9124682
1.2943929 -0.4339495 1.9182295
1.2932298 -0.43871671 1.9460241
1.2719346 -0.43668681 1.9433911
1.2687469 -0.44089991 1.9687129
1.2762663 -0.44898379 2.0115502
1.2381959 -0.44103086 1.9819092
1.2169919 -0.43896049 1.9786847
1.2151294 -0.44390273 2.0072744
1.1884205 -0.43977875 1.9944824
1.178265 -0.44175252 2.0094464
1.1596613 -0.44056931 2.0098677
1.1473839 -0.44179007 2.0212572
1.1316745 -0.44170457 2.0265565
1.1093677 -0.43900606 2.0196574
1.0858253 -0.4357357 2.009949
1.0684342 -0.4348757 2.0113106
1.0605756 -0.43792695 2.0308442
1.0373377 -0.43462417 2.0206029
1.0134201 -0.43093392 2.0083816
1.010547 -0.43621615 2.0382333
0.99234706 -0.4349429 2.0371871
0.97885096 -0.43572384 2.0457466
0.96155196 -0.43480989 2.046205
0.94348097 -0.43351176 2.0447359
0.92789876 -0.43333337 2.0484898
0.89883423 -0.42674795 2.0215764
0.88541329 -0.42749256 2.0295095
0.86348331 -0.42408374 2.0174677
0.8530978 -0.42632461 2.0324166
0.83326697 -0.42384112 2.0245903
0.82162088 -0.42550617 2.0366442
0.80805808 -0.42622179 2.0440626
0.78316236 -0.42087406 2.0220621
0.76553404 -0.41930151 2.0181963
0.75682902 -0.42265052 2.0381379
0.74289042 -0.42315224 2.0442011
0.72400683 -0.42080036 2.0362816
0.70623344 -0.41900927 2.0309851
0.69830066 -0.42310461 2.0543785
0.66887081 -0.41406974 2.0134258
0.65539259 -0.41472811 2.0198262
0.64127171 -0.41500041 2.0242641
0.62741143 -0.4154579 2.0295429
0.61407399 -0.41629162 2.0366085
0.59737235 -0.41482979 2.0322797
0.58290958 -0.41488841 2.0353727
0.56450707 -0.4120743 2.024174
0.54424775 -0.40772116 2.005239
0.53024882 -0.40794963 2.0089118
0.52155364 -0.41238448 2.0334136
0.50618643 -0.41164631 2.0321653
0.47231832 -0.3953777 1.9534984
0.42200035 -0.36393857 1.7989504
0.35248959 -0.3134706 1.5490305
0.33246076 -0.30517477 1.5092106
0.32170653 -0.30512369 1.5104851
0.31251782 -0.30660501 1.5193775
0.30151972 -0.30635345 1.5195494
0.29035223 -0.3059049 1.5186791
0.27780524 -0.30391273 1.5100052
0.26776063 -0.30460843 1.5147657
0.25571439 -0.3029902 1.5078477
0.24455585 -0.30232909 1.5056818
0.23418516 -0.30262619 1.5082848
0.22364809 -0.30272633 1.5098474
0.21350779 -0.30340019 1.5142531
0.20241497 -0.30272025 1.5117831
0.19124453 -0.30184248 1.5082606
0.1815182 -0.30327469 1.5163504
0.1700583 -0.30180848 1.5097517
0.15900438 -0.30091602 1.5059966
0.14943925 -0.3029145 1.5168114
0.1389358 -0.30317131 1.5187721
0.12734979 -0.30091268 1.5079509
0.11681984 -0.30096671 1.5087837
0.1064891 -0.30159572 1.5124811
0.096174285 -0.30241355 1.5170885
0.085254021 -0.3012943 1.5118308
0.074746422 -0.30152309 1.5133566
0.064139515 -0.30136064 1.5128503
0.053577516 -0.30138677 1.5132518
0.042902667 -0.30063492 1.5096583
0.032446511 -0.30142501 1.5138386
0.021766219 -0.29989028 1.5061758
0.011258663 -0.30009094 1.5072694
0.00073701935 -0.30028701 1.5082915
-0.0098045235 -0.30067173 1.5102229
-0.020320388 -0.30027831 1.5081578
-0.030947229 -0.30123365 1.5128882
-0.041560479 -0.30160418 1.5146024
-0.051831312 -0.29984352 1.5054579
-0.062580638 -0.30097795 1.5109501
-0.072985642 -0.30036798 1.5075473
-0.083669029 -0.30091301 1.5099523
-0.094207622 -0.30087352 1.5093454
-0.10494365 -0.3014091 1.5116034
-0.11608554 -0.30290571 1.5186782
-0.12652232 -0.30246571 1.5158944
-0.13701372 -0.30221426 1.5140176
-0.14729668 -0.3015722 1.5101168
-0.15773445 -0.30131185 1.5080998
-0.17267863 -0.30915216 1.5469736
-0.23203127 -0.39087602 1.9589489
-0.24773198 -0.39404991 1.9738718
-0.26416206 -0.39798737 1.9925641
-0.27789894 -0.39767569 1.9897422
-0.29556948 -0.40275398 2.0140157
-0.3087008 -0.40146583 2.0061305
-0.32390523 -0.40286857 2.0117278
-0.33952522 -0.40464932 2.0191481
-0.35341343 -0.40430602 2.0158157
-0.37024546 -0.4072271 2.0288048
-0.38473263 -0.4074479 2.0281575
-0.39546472 -0.40381858 2.008146
-0.41061664 -0.40479732 2.0111692
-0.42603165 -0.40596128 2.0150404
-0.44172889 -0.40731028 2.0197556
-0.44720262 -0.39944303 1.9783852
-0.46961835 -0.40672678 2.0125728
-0.48386449 -0.40671423 2.0102711
-0.49223706 -0.40190664 1.9840443
-0.51112616 -0.4057143 2.000613
-0.52803928 -0.40778983 2.0084684
-0.53618479 -0.4031634 1.9830066
-0.55966002 -0.41000515 2.0143049
-0.58894503 -0.42065391 2.0642633
-0.59264672 -0.41295582 2.0234246
-0.59300876 -0.40335336 1.9732282
-0.61739087 -0.41015571 2.0038579
-0.63459617 -0.41198909 2.0098891
-0.65551746 -0.41609961 2.0269966
-0.6672079 -0.41429931 2.0149989
-0.67250752 -0.40869197 1.9843262
-0.69210917 -0.41182876 1.9963831
-0.7132166 -0.41571498 2.0119689
-0.71896136 -0.41067046 1.983935
-0.73722363 -0.4128336 1.9909397
-0.72767335 -0.39963874 1.9233266
-0.77028698 -0.41504967 1.9943899
-0.79210138 -0.41888985 2.0091748
-0.8036027 -0.41723549 1.9973062
-0.80609059 -0.41104418 1.9635482
-0.83942395 -0.4205229 2.0051231
-0.83966833 -0.41338405 1.9667538
-0.86005974 -0.41623792 1.9762635
-0.88102376 -0.41926908 1.9864837
-0.9053911 -0.42379367 2.0036778
-0.90719122 -0.41777959 1.9705992
-0.93260962 -0.4226605 1.9892443
-0.9461413 -0.42208582 1.9818879
-0.96260756 -0.42281786 1.9806333
-0.983868 -0.42560157 1.9889442
-0.99037009 -0.42201331 1.9671761
-1.0099748 -0.42403179 1.9716854
-1.022927 -0.4232392 1.9629272
-1.0312378 -0.42057624 1.9453882
-1.0527961 -0.42331514 1.9529518
-1.0543295 -0.41803801 1.9231946
-1.0678651 -0.41759917 1.9158669
-1.0986865 -0.42384055 1.9392794
-1.0869964 -0.41373461 1.8872725
-1.1017746 -0.41383654 1.8822621
-1.1315202 -0.41948462 1.9025288
-1.1413962 -0.41771612 1.8887557
-1.1301808 -0.40837139 1.8405216
-1.1059409 -0.39461318 1.7724746
-1.080284 -0.38069564 1.7040224
-1.0680008 -0.37177324 1.6583858
-1.0823942 -0.37224022 1.6550745
-1.0605961 -0.36039791 1.5966231
-1.0680664 -0.35866299 1.5835154
-1.0853386 -0.36022168 1.5850278
-1.137249 -0.37310871 1.636585
1.3652738 -0.45762324 1.9320836
1.3392689 -0.45406243 1.92372
1.3244973 -0.45427161 1.9313277
1.3096862 -0.45447198 1.9388245
1.2942959 -0.45447379 1.9453909
1.2927924 -0.45941055 1.9732389
1.2719088 -0.45749655 1.9713948
1.2610639 -0.45919088 1.9851357
1.2692441 -0.46794158 2.0296807
1.232851 -0.46027264 2.0023983
1.2146137 -0.45927233 2.0041504
1.1779177 -0.45117593 1.974496
1.1752965 -0.45608979 2.0020988
1.1611239 -0.45659214 2.0101752
1.1459361 -0.45670348 2.0164418
1.1207237 -0.45276806 2.0045741
1.0933887 -0.44785392 1.9881479
1.0760884 -0.4469696 1.9895972
1.0670696 -0.44954887 2.0065219
1.0474776 -0.44768405 2.0033851
1.0239748 -0.44406834 1.9922074
1.0064003 -0.44295412 1.9922034
0.99104828 -0.44279924 1.9964517
0.97825545 -0.44380048 2.0058815
0.97043812 -0.44712549 2.0258608
0.96156394 -0.45006126 2.0440485
0.94226807 -0.4481352 2.0399177
0.91583526 -0.44269615 2.0195179
0.89647561 -0.440552 2.0141048
0.87841082 -0.43898231 2.0112214
0.8638882 -0.4391593 2.0163081
0.85047436 -0.43991593 2.0240059
0.83365887 -0.43890867 2.0234449
0.81032956 -0.43437308 2.0063636
0.79803777 -0.43569583 2.0164416
0.77508467 -0.43113804 1.9989895
0.76486486 -0.43362415 2.0143528
0.74938172 -0.43316519 2.0158703
0.73824692 -0.43525162 2.0292606
0.71978086 -0.4330126 2.0222535
0.70497304 -0.43292704 2.0252841
0.69016093 -0.43283513 2.0282073
0.67042941 -0.42958704 2.0161273
0.65360898 -0.42810154 2.0122719
0.64335203 -0.4309451 2.0288553
0.62714273 -0.42984098 2.0266504
0.61184144 -0.42932159 2.027137
0.59876442 -0.43037558 2.0350387
0.57783002 -0.42569354 2.0155146
0.54829901 -0.41427657 1.9636828
0.53074414 -0.41154623 1.9531884
0.52753335 -0.42009127 1.9965931
0.52060151 -0.4260647 2.0276968
0.49984512 -0.42074215 2.0045655
0.46456087 -0.40251938 1.9192992
0.41092655 -0.3668144 1.7496461
0.35233569 -0.3243202 1.5468521
0.3323153 -0.31573698 1.5070902
0.3229821 -0.31707454 1.5150777
0.31042337 -0.31522864 1.5076444
0.29987448 -0.31536496 1.5097283
0.28821775 -0.31430319 1.5059625
0.27838564 -0.31522602 1.5117508
0.26628968 -0.31355685 1.5049278
0.25722504 -0.31546667 1.5154076
0.24475878 -0.31318936 1.5055172
0.23393212 -0.31289878 1.5052148
0.2236909 -0.3134008 1.5087148
0.21300597 -0.31330019 1.5092351
0.20232473 -0.31319484 1.5096815
0.19213627 -0.31388283 1.5139428
0.18155247 -0.3139677 1.5152181
0.16987349 -0.31205136 1.5066826
0.15944284 -0.31232598 1.5087805
0.14899139 -0.31259602 1.5108078
0.1388734 -0.3136605 1.5166676
0.12729254 -0.31132361 1.505862
0.11751674 -0.31337801 1.5164642
0.10671391 -0.31282961 1.5142975
0.095762409 -0.31167653 1.5091223
0.085324906 -0.3121179 1.5116962
0.074760586 -0.31215456 1.5122423
0.063658215 -0.30958658 1.4999903
0.053587679 -0.31201348 1.5121392
0.042966008 -0.31163555 1.5105097
0.032452658 -0.31205297 1.5127262
0.021882629 -0.31206542 1.5129114
0.011289829 -0.31147295 1.5100855
0.00074048113 -0.31227592 1.5140458
-0.009863114 -0.31307399 1.5179336
-0.02063817 -0.31566757 1.5305662
-0.031072227 -0.31305519 1.5176544
-0.042021032 -0.31563881 1.5301389
-0.053077206 -0.31781718 1.5405872
-0.063837983 -0.31779036 1.5401882
-0.075253017 -0.32055825 1.5534174
-0.087874644 -0.32711968 1.585152
-0.09948729 -0.32887617 1.5933161
-0.11081362 -0.32942772 1.5955318
-0.12417341 -0.33537039 1.6240485
-0.13551022 -0.33531106 1.6231626
-0.14850341 -0.33904251 1.6407416
-0.16165204 -0.34256768 1.657245
-0.17533907 -0.34668511 1.6765697
-0.20330757 -0.37675065 1.822396
-0.23673551 -0.41278386 1.9971083
-0.24943937 -0.41067758 1.9857215
-0.26084599 -0.40677088 1.9655131
-0.27710193 -0.4104389 1.9821279
-0.28964236 -0.40851605 1.9714625
-0.30308533 -0.40798345 1.9675013
-0.32391629 -0.41700864 2.0098977
-0.33872908 -0.41785544 2.0124717
-0.35056695 -0.41511169 1.9975604
-0.36239022 -0.41256297 1.9835482
-0.38111496 -0.41776875 2.0070295
-0.39359751 -0.41600421 1.9966849
-0.40809879 -0.4164215 1.9968306
-0.42262185 -0.41683245 1.9968737
-0.44028717 -0.42021582 2.011179
-0.44851017 -0.41465759 1.9823033
-0.45281485 -0.40592444 1.9381354
-0.48091877 -0.41841206 1.9960045
-0.49272677 -0.41641259 1.9841053
-0.51066333 -0.41955969 1.9968415
-0.5181511 -0.41418415 1.9686451
-0.54002106 -0.42028525 1.9953493
-0.55289859 -0.41925418 1.9878296
-0.56783861 -0.41979951 1.9877733
-0.58417588 -0.42132592 1.9923133
-0.60228771 -0.4240289 2.0023592
-0.61024088 -0.41962048 1.9785042
-0.62757677 -0.42171782 1.9855052
-0.64144319 -0.42144227 1.9811614
-0.66355366 -0.42647731 2.001868
-0.67284721 -0.42323557 1.983337
-0.6943692 -0.42766067 2.0009291
-0.70770317 -0.42696497 1.9942731
-0.72098154 -0.4262642 1.9875292
-0.74232769 -0.43026718 2.0027845
-0.74805921 -0.42523983 1.9756148
-0.77206951 -0.4305968 1.9969863
-0.77066797 -0.42184532 1.9523759
-0.80872375 -0.43461719 2.0080521
-0.81574935 -0.4305546 1.985196
-0.83831787 -0.43469417 2.0003729
-0.85271716 -0.43452805 1.9954673
-0.86631489 -0.43396592 1.9886578
-0.88263148 -0.43476191 1.9880389
-0.90059286 -0.43632856 1.9908687
-0.9149695 -0.43613595 1.9855162
-0.93511784 -0.43865684 1.9925092
-0.9285115 -0.42874476 1.9425902
-0.94343776 -0.42892775 1.938798
-0.970043 -0.4343344 1.9586655
-0.99083245 -0.43701434 1.9659712
-1.0077716 -0.43794221 1.9652131
-1.0053585 -0.43055528 1.9268453
-1.024405 -0.43243864 1.9302804
-1.0352159 -0.43084124 1.9179724
-1.0609245 -0.4354023 1.9331855
-1.0617123 -0.42975104 1.9026294
-1.0775291 -0.43025371 1.8995237
-1.1011544 -0.43381923 1.9099205
-1.0909517 -0.4241392 1.8615323
-1.1075816 -0.42500722 1.8598582
-1.1257603 -0.42643961 1.8605672
-1.1342989 -0.42423034 1.8451898
-1.1473318 -0.42373618 1.8372943
-1.1326118 -0.41313103 1.785267
-1.1251489 -0.40539962 1.7459439
-1.14177 -0.40642765 1.7446986
-1.1271073 -0.39642802 1.6957524
-1.156027 -0.40181226 1.7132041
-1.2100674 -0.41570097 1.7668922
-1.2253556 -0.41611058 1.762508
1.3488816 -0.46744478 1.906383
1.3191445 -0.46238986 1.8922892
1.3377057 -0.47434387 1.9483899
1.2817823 -0.45985651 1.8949093
1.3066941 -0.47437018 1.9618235
1.2563825 -0.46159613 1.9149451
1.2946239 -0.48144165 2.004494
1.2646922 -0.47611207 1.9885362
1.2221173 -0.46583012 1.951444
1.2087772 -0.46657237 1.9606913
1.1943597 -0.46691239 1.9681683
1.1794002 -0.46704674 1.974696
1.1678686 -0.46855983 1.9870385
1.1493957 -0.46729127 1.987414
1.1444722 -0.47157136 2.0115261
1.1321324 -0.47287095 2.0228124
1.1206349 -0.47456321 2.0357442
1.0960289 -0.47067395 2.0244422
1.0482951 -0.45660001 1.9687103
1.0379891 -0.45865673 1.9828534
1.040463 -0.46650404 2.0222545
1.0235429 -0.46576002 2.0241268
1.0088191 -0.4660081 2.0302553
0.99620038 -0.46725118 2.0406852
0.97675359 -0.46528041 2.0368831
0.9594878 -0.4643026 2.037348
0.92020291 -0.45246643 1.9895948
0.90899998 -0.45427668 2.0021315
0.90599036 -0.46031004 2.0334206
0.88894641 -0.45929646 2.0333121
0.86236221 -0.4532339 2.0105352
0.85312331 -0.45623487 2.0281634
0.84108764 -0.45782045 2.0394142
0.81690592 -0.45273229 2.0206006
0.8009153 -0.45207939 2.0216036
0.79797834 -0.45890892 2.0562954
0.77040666 -0.45156151 2.0269043
0.75312501 -0.45007586 2.0238729
0.73226529 -0.44634983 2.010571
0.71815968 -0.44667277 2.0155435
0.70754367 -0.44922471 2.0305963
0.68954414 -0.4470976 2.0242655
0.67719799 -0.44862345 2.0345182
0.65632743 -0.44444445 2.018609
0.64012617 -0.44330952 2.0165181
0.62600231 -0.44359386 2.0208519
0.61438221 -0.44570819 2.0335274
0.59163207 -0.4396545 2.0085547
0.57757306 -0.4399184 2.0125539
0.56767488 -0.44344604 2.0315492
0.55065638 -0.44145074 2.024987
0.53450376 -0.44006076 2.0211298
0.52109408 -0.44091463 2.027581
0.50291556 -0.43766698 2.0149429
0.48173666 -0.43154103 1.98883
0.45450363 -0.4194572 1.9348814
0.41187873 -0.39197186 1.8090546
0.38731715 -0.38046086 1.7573241
0.38028297 -0.3859739 1.7848246
0.36290941 -0.38101116 1.7634065
0.35038769 -0.38097012 1.7648827
0.33804598 -0.38112903 1.7672333
0.32147318 -0.37634683 1.7463939
0.30317819 -0.36908647 1.7138464
0.29184297 -0.37004763 1.7197359
0.27935168 -0.36956275 1.7187886
0.26763272 -0.37010196 1.7225891
0.25502145 -0.36939976 1.7205023
0.2428588 -0.3693099 1.7212327
0.23327479 -0.37333748 1.7412797
0.21805289 -0.36828855 1.7185585
0.20523381 -0.3669441 1.7132041
0.19282539 -0.36621228 1.710674
0.18066585 -0.36588731 1.7100029
0.16862012 -0.36576301 1.7102212
0.15675694 -0.36604601 1.7123054
0.14626135 -0.36983404 1.730885
0.13581564 -0.37444383 1.7533044
0.12363518 -0.37471157 1.7551653
0.10959359 -0.36877578 1.7276487
0.099271752 -0.37543669 1.7596158
0.087267846 -0.37672064 1.766115
0.076000765 -0.38213238 1.7920845
0.062970512 -0.3790651 1.7778933
0.051242985 -0.38425952 1.8027307
0.038529951 -0.38304052 1.7971683
0.0261067 -0.38491631 1.806193
0.013879214 -0.39588222 1.858182
0.00092505105 -0.40332797 1.8934549
-0.012038094 -0.39505616 1.8542807
-0.024850989 -0.39298013 1.8443713
-0.038479835 -0.40082049 1.8813295
-0.051689986 -0.40141925 1.8839562
-0.065005139 -0.40242517 1.8884479
-0.078144014 -0.40218461 1.8869818
-0.091406502 -0.40255782 1.8883586
-0.10635614 -0.40933019 1.919929
-0.12102184 -0.41361541 1.9396652
-0.13596588 -0.41789305 1.9592918
-0.14978209 -0.41823867 1.9602685
-0.16329555 -0.41775185 1.9572496
-0.17773663 -0.41952986 1.9648596
-0.19097196 -0.41841084 1.9587302
-0.19948718 -0.40779287 1.907745
-0.22259802 -0.42647144 1.9948388
-0.23662621 -0.42657006 1.9942442
-0.24980898 -0.42521861 1.986756
-0.26379481 -0.42530459 1.985974
-0.27980074 -0.42847553 1.9996337
-0.29148743 -0.42504519 1.9821837
-0.30635023 -0.42634782 1.9869179
-0.31742567 -0.42249587 1.9673864
-0.33486247 -0.42707902 1.9873718
-0.35141531 -0.43021232 2.0004637
-0.36292401 -0.42716697 1.9845357
-0.37822053 -0.42864048 1.9897038
-0.3954874 -0.43216163 2.0043614
-0.40713495 -0.42951113 1.9901031
-0.42122245 -0.42952582 1.9882325
-0.43343279 -0.42768726 1.9776567
-0.45538974 -0.43528008 2.0109353
-0.46964467 -0.43527341 2.0087295
-0.48298082 -0.43444073 2.0026166
-0.49719402 -0.43442199 2.0002182
-0.50537372 -0.42927924 1.9740033
-0.51915735 -0.4290463 1.9705013
-0.54308373 -0.43698695 2.0047166
-0.55656266 -0.43632904 1.9990679
-0.57693899 -0.44097605 2.0178146
-0.59295034 -0.44214126 2.0203989
-0.60454327 -0.44003478 2.0078514
-0.63635409 -0.45239985 2.0617011
-0.62495345 -0.43418112 1.9750977
-0.64775473 -0.44000602 1.9987322
-0.66509885 -0.4419511 2.004478
-0.67067528 -0.43616039 1.974822
-0.69214976 -0.4407346 1.9923958
-0.70902067 -0.44225031 1.9959151
-0.725977 -0.44375759 1.999297
-0.74470985 -0.44627023 2.0071359
-0.76186657 -0.44775978 2.0102284
-0.76892382 -0.4433696 1.9866687
-0.78856283 -0.44626245 1.9959315
-0.80145943 -0.4453038 1.9877416
-0.81724524 -0.44595602 1.9867231
-0.83418918 -0.44720623 1.9882945
-0.83474118 -0.43977728 1.950958
-0.867495 -0.44927782 1.98922
-0.87908649 -0.44768423 1.9778289
-0.87771732 -0.43965089 1.9377809
-0.90927213 -0.44810241 1.970885
-0.91194487 -0.44227803 1.940605
-0.93483126 -0.44628575 1.953748
-0.95539218 -0.44907695 1.9613744
-0.96746004 -0.44785196 1.9512264
-0.98206902 -0.44782227 1.9462616
-0.97575778 -0.43839431 1.9001529
-1.0197998 -0.45153466 1.9525353
-1.0180199 -0.44430095 1.9159765
-1.0315248 -0.44384789 1.9089022
-1.0431087 -0.44259244 1.8982905
-1.0588745 -0.44312143 1.8953249
-1.0708055 -0.44205302 1.8853999
-1.0753483 -0.43800378 1.8626423
-1.1008267 -0.4424763 1.8763409
-1.107096 -0.43921185 1.8568692
-1.1005293 -0.43100411 1.8163944
-1.1057103 -0.4275468 1.7961833
-1.1178969 -0.42685112 1.7876531
-1.1321111 -0.42693719 1.7823591
-1.1294045 -0.42071795 1.7505233
-1.1476712 -0.4223673 1.7517042
-1.1395611 -0.4143858 1.7126064
-1.1413258 -0.41014081 1.6891891
-1.1466786 -0.40726897 1.6715087
-1.1752334 -0.41260922 1.6877384
1.3319198 -0.47669026 1.8798523
1.3430617 -0.48619846 1.9244652
1.3100457 -0.47975647 1.9054044
1.3019421 -0.4823935 1.9225625
1.2877189 -0.48279884 1.9307177
1.2659627 -0.48035559 1.927284
1.2496091 -0.47992787 1.9318839
1.220704 -0.4746094 1.9164859
1.2262144 -0.48270598 1.955649
1.2056704 -0.48062134 1.9532357
1.1933116 -0.4817878 1.9640467
1.1693745 -0.4782494 1.9554175
1.1490771 -0.47612602 1.9524691
1.1196181 -0.47009939 1.9332094
1.1217992 -0.4773742 1.9690198
1.1373304 -0.49060699 2.0297565
1.082558 -0.47345948 1.9637233
1.0913637 -0.4840267 2.0133829
1.0592633 -0.47649464 1.9871331
1.0330083 -0.47141188 1.9709556
1.0168357 -0.47084856 1.9736788
1.0046343 -0.47213462 1.9841419
0.99537259 -0.4748621 2.0006714
0.99361902 -0.48131043 2.0330117
0.97168708 -0.47803301 2.023911
0.95532644 -0.47743595 2.0261245
0.93163532 -0.47309721 2.0122085
0.90738612 -0.46832827 1.9962796
0.89568508 -0.46998486 2.0078416
0.87763584 -0.46831012 2.0049825
0.86887735 -0.47162068 2.023566
0.85990638 -0.47492984 2.0421236
0.83180958 -0.46760538 2.0144985
0.80851912 -0.46276596 1.9974757
0.79231656 -0.46187934 1.9975196
0.77861971 -0.46244752 2.0038233
0.76522261 -0.46321905 2.0109482
0.74735963 -0.46126443 2.0060613
0.72960556 -0.45930028 2.0010245
0.72436047 -0.46529126 2.0308666
0.69922638 -0.45849001 2.0043685
0.69267887 -0.46384612 2.0313396
0.67320663 -0.46059191 2.0202565
0.65091991 -0.45522508 1.9997004
0.63218933 -0.45215809 1.9891921
0.62542892 -0.45770878 2.0168319
0.60707504 -0.4548372 2.0070202
0.5924592 -0.45469475 2.0092504
0.58668858 -0.46150297 2.042398
0.56453764 -0.45544469 2.0181062
0.54759866 -0.45338345 2.0115397
0.5392248 -0.45849377 2.0369794
0.51263189 -0.44796664 1.9923187
0.50033057 -0.44968399 2.0024164
0.48448566 -0.44822386 1.9981862
0.46983531 -0.44781396 1.9985942
0.45283428 -0.44506818 1.9884111
0.43954834 -0.44591448 1.9943219
0.42195749 -0.44230464 1.9800669
0.40751994 -0.44186541 1.9800293
0.3921597 -0.44035885 1.9750952
0.38180909 -0.44457418 1.9959677
0.35942432 -0.43456286 1.9523853
0.34762937 -0.4370673 1.9653801
0.33161616 -0.43425596 1.9542165
0.31297517 -0.42761058 1.9255638
0.30263773 -0.43222207 1.9479346
0.28603467 -0.42789811 1.9296529
0.27376392 -0.42994708 1.9402686
0.25852752 -0.42730922 1.9294995
0.24467431 -0.42679209 1.9283099
0.22750622 -0.42009345 1.898886
0.21987909 -0.43127498 1.9508857
0.20268108 -0.42392221 1.9183296
0.19032039 -0.42636093 1.9303633
0.17577016 -0.42389256 1.9199399
0.16210836 -0.42333519 1.9181731
0.15042634 -0.42831421 1.9416384
0.13542941 -0.42390615 1.9221514
0.1222441 -0.42482188 1.9269301
0.10856222 -0.42402494 1.9238164
0.095120788 -0.42407459 1.9245116
0.082332283 -0.42753109 1.9407326
0.068568483 -0.42628777 1.9353898
0.05485516 -0.42482433 1.9289755
0.041649703 -0.42762184 1.9420017
0.028154207 -0.42870581 1.9471238
0.014691127 -0.43277079 1.9658313
0.0009530409 -0.42914677 1.9492762
-0.012548605 -0.42530277 1.9316512
-0.026132602 -0.42678714 1.9383578
-0.039651472 -0.42655766 1.9371566
-0.052888926 -0.4241879 1.9260972
-0.065174118 -0.41669121 1.8915162
-0.079270452 -0.42134973 1.9125019
-0.093707651 -0.42621422 1.93436
-0.10770032 -0.42808488 1.942454
-0.12199097 -0.43058839 1.9533745
-0.1356992 -0.43073896 1.9534701
-0.15074541 -0.43472046 1.9710075
-0.16337879 -0.43165952 1.9563003
-0.17712709 -0.43179005 1.9561119
-0.18871488 -0.42701304 1.9334619
-0.19828202 -0.41861004 1.8942269
-0.21614116 -0.42766908 1.9345859
-0.23193884 -0.43181992 1.9524717
-0.24981129 -0.4391551 1.9847764
-0.2643086 -0.44009537 1.9878677
-0.27509439 -0.43507141 1.9637564
-0.28993714 -0.43663725 1.9695668
-0.30369064 -0.43649465 1.9675406
-0.32346049 -0.44463468 2.0030491
-0.33615631 -0.44277665 1.9930826
-0.35259372 -0.44579831 2.0051799
-0.3622295 -0.44031897 1.9786874
-0.38185066 -0.44693395 2.0068948
-0.39530206 -0.44611242 2.0013621
-0.40558216 -0.44189239 1.9804181
-0.41941568 -0.44169667 1.9776002
-0.43884364 -0.44721466 2.0004714
-0.45410538 -0.44827434 2.0031462
-0.46854204 -0.44847989 2.001899
-0.48321229 -0.44889036 2.0015004
-0.49602658 -0.44760251 1.993405
-0.5114032 -0.44863424 1.9956504
-0.53104323 -0.45324889 2.0138547
-0.54664397 -0.45426354 2.0158384
-0.55317992 -0.44788668 1.9847294
-0.57320184 -0.45247483 2.0025251
-0.58392262 -0.44967601 1.9872936
-0.60510719 -0.45487657 2.0076008
-0.61571187 -0.45206699 1.9921952
-0.62642741 -0.4494648 1.9776728
-0.64206696 -0.45043287 1.9789195
-0.65775681 -0.45139325 1.9800452
-0.67787158 -0.45528466 1.9940196
-0.6934309 -0.45601794 1.9939476
-0.7002396 -0.45108414 1.9688609
-0.71270877 -0.44992143 1.9603332
-0.72814018 -0.45063764 1.9599851
-0.7322337 -0.44444451 1.9293178
-0.75453949 -0.44933087 1.9470657
-0.78070468 -0.45629165 1.9737011
-0.77928066 -0.44716772 1.930162
-0.81391847 -0.45869312 1.9763674
-0.82440788 -0.45644361 1.9626019
-0.83168876 -0.45252594 1.9415848
-0.84610879 -0.45255974 1.9376144
-0.86170346 -0.45321023 1.9362221
-0.8773241 -0.45385283 1.9347067
-0.8913396 -0.45365769 1.9295105
-0.90781254 -0.45469964 1.9295321
-0.919294 -0.45324796 1.9188144
-0.92982244 -0.45137841 1.9062691
-0.94281846 -0.45074525 1.8989362
-0.97768301 -0.46042982 1.9352511
-0.98821187 -0.45853725 1.9223589
-1.0022178 -0.45828959 1.9163624
-1.0015776 -0.45144755 1.8825688
-1.0278218 -0.45674521 1.899752
-1.0271686 -0.45010915 1.8668348
-1.0223103 -0.44183755 1.8271716
-1.0347412 -0.44116107 1.8192093
-1.0514958 -0.44232142 1.8188051
-1.0515456 -0.43651664 1.789499
-1.085649 -0.44481546 1.818403
-1.0924605 -0.44186258 1.8007809
-1.0985706 -0.43870437 1.7823166
-1.1132562 -0.43900704 1.7779959
-1.1248051 -0.43808043 1.7685884
-1.134167 -0.43633521 1.7558087
-1.1268593 -0.42829618 1.7175372
-1.1519856 -0.43262938 1.7293023
-1.1457063 -0.42520499 1.6936228
-1.1714945 -0.42971605 1.7058846
-1.1563151 -0.41926891 1.6582421
1.3295885 -0.49095282 1.8740979
1.3039658 -0.48702148 1.8655792
1.300593 -0.49140567 1.889106
1.298591 -0.49641681 1.9151109
1.248757 -0.4830448 1.8694386
1.2466588 -0.48803824 1.895241
1.2146599 -0.48130545 1.8750365
1.1939892 -0.4789505 1.8718339
1.2158145 -0.4937965 1.9364872
1.1688173 -0.4807125 1.8906827
1.1826476 -0.49263096 1.9439217
1.176316 -0.49635127 1.9646636
1.1154848 -0.47687081 1.8925854
1.1078849 -0.47993094 1.9104209
1.0976856 -0.48193243 1.9239883
1.090207 -0.48519951 1.9426295
1.0721967 -0.48380506 1.9424005
1.062589 -0.48621631 1.9575031
1.0281293 -0.47716236 1.925932
1.0275655 -0.48380521 1.9581172
0.9954412 -0.47556549 1.9294987
0.99933946 -0.48454624 1.9712332
0.98278958 -0.48373413 1.9728217
0.97992885 -0.48973849 2.0023987
0.94053161 -0.47738546 1.956198
0.94908255 -0.48936355 2.0104001
0.92059028 -0.48231989 1.9858261
0.89973015 -0.47910959 1.9769815
0.8881467 -0.48081452 1.9884835
0.87450314 -0.48144305 1.9954413
0.85506094 -0.47884589 1.98883
0.84254414 -0.48010397 1.9982644
0.82401061 -0.47791725 1.9931644
0.79721349 -0.4707714 1.9670656
0.79159075 -0.47609633 1.99339
0.77157605 -0.47280291 1.9832904
0.76244956 -0.47618315 2.0013261
0.74023288 -0.47136033 1.9845325
0.72361213 -0.46997935 1.9822186
0.70967233 -0.47031882 1.9871336
0.69698131 -0.47151721 1.9956416
0.68922192 -0.47617364 2.0188644
0.67810726 -0.47866392 2.0328071
0.65782344 -0.47464874 2.0188265
0.62689584 -0.46259704 1.9702218
0.62542194 -0.47222477 2.0145822
0.60482234 -0.46752608 1.9973143
0.59657007 -0.47237536 2.0210779
0.58533955 -0.47504973 2.0354364
0.5666225 -0.47162944 2.023406
0.55243504 -0.47189873 2.0272334
0.53474808 -0.46911263 2.0177488
0.51528811 -0.46457353 2.0005548
0.50408888 -0.46743569 2.0153966
0.48082626 -0.45895126 1.9808431
0.46872273 -0.46092716 1.9916848
0.45261717 -0.45896816 1.9853221
0.43891981 -0.45940366 1.9893209
0.42155242 -0.455899 1.9760431
0.4102554 -0.45894408 1.9913043
0.39234808 -0.45454788 1.9739552
0.37688842 -0.45276728 1.9679602
0.36065426 -0.449884 1.9570496
0.34965569 -0.45356214 1.9748421
0.33340102 -0.45044452 1.9627504
0.32106325 -0.45257807 1.9736489
0.30546618 -0.45010236 1.9642229
0.28987384 -0.44739899 1.9537133
0.27457798 -0.44490659 1.9440513
0.2584011 -0.44065043 1.9265372
0.24492042 -0.44077536 1.9282551
0.23246585 -0.4428699 1.9385997
0.22161618 -0.44847283 1.9643784
0.20644991 -0.44550434 1.9522606
0.19269851 -0.4453842 1.9526521
0.1790401 -0.44547698 1.9539206
0.16341545 -0.4402875 1.9317648
0.14840634 -0.43596879 1.9133807
0.13509022 -0.4362596 1.915321
0.12212241 -0.43786341 1.9230125
0.1096548 -0.44188035 1.9413316
0.094547689 -0.43489262 1.9108547
0.081552424 -0.4369168 1.9202263
0.068363048 -0.43849441 1.9275608
0.05529616 -0.4418259 1.9426082
0.041795265 -0.44273043 1.9468402
0.02816828 -0.44252795 1.9461036
0.014611445 -0.44407907 1.9530776
0.00094688474 -0.43990186 1.9345964
-0.012693428 -0.44385999 1.9521152
-0.025923766 -0.43680847 1.9207693
-0.039730974 -0.44097292 1.9390769
-0.05291592 -0.43786901 1.9251075
-0.067543417 -0.4455398 1.9588232
-0.07967253 -0.43692243 1.9203033
-0.093333177 -0.43797895 1.9245856
-0.10802256 -0.44298774 1.9463056
-0.12005858 -0.43721214 1.9202074
-0.13610223 -0.44572443 1.9572973
-0.14941488 -0.44455361 1.9514583
-0.16337894 -0.44535473 1.9542809
-0.17852543 -0.44900584 1.9696367
-0.1884338 -0.43990424 1.92856
-0.19657087 -0.42816365 1.8757998
-0.21818686 -0.44541341 1.9510144
-0.23491156 -0.45122993 1.9756382
-0.24775246 -0.44935352 1.9662427
-0.26264638 -0.45120227 1.97321
-0.27711126 -0.45216545 1.9762014
-0.2851375 -0.44303256 1.9346818
-0.30502126 -0.45231602 1.9741583
-0.31835777 -0.45150432 1.9691381
-0.33841148 -0.45988882 2.0044472
-0.34923261 -0.45555729 1.9838258
-0.36100665 -0.45275491 1.9698735
-0.37876639 -0.45738885 1.988454
-0.3864688 -0.44998083 1.9542212
-0.40597028 -0.45634812 1.980221
-0.42122552 -0.45767632 1.9840842
-0.43219152 -0.45440885 1.9678102
-0.4408091 -0.44895428 1.9419613
-0.45903534 -0.45332 1.9588636
-0.48184335 -0.46181974 1.9936391
-0.49789771 -0.46354514 1.9988242
-0.51212275 -0.46351877 1.9963182
-0.52633864 -0.46348581 1.9937123
-0.53699034 -0.46039879 1.9778134
-0.54692757 -0.45687345 1.9599825
-0.55637819 -0.45312837 1.9411719
-0.57680935 -0.45829067 1.960743
-0.58382112 -0.45279893 1.9343053
-0.60682666 -0.45967859 1.9610568
-0.62320286 -0.46133751 1.9652349
-0.63487768 -0.45951974 1.9544153
-0.64459932 -0.45639816 1.9379667
-0.65662473 -0.45500606 1.9288779
-0.67047077 -0.4549073 1.9252539
-0.68690312 -0.45653155 1.9288958
-0.69844723 -0.45490688 1.9186287
-0.71258932 -0.45500493 1.9156233
-0.73740375 -0.46178257 1.9408394
-0.75033027 -0.46100014 1.9339086
-0.76391387 -0.46064302 1.92871
-0.77928269 -0.46135572 1.927949
-0.79283285 -0.46098554 1.9225483
-0.80823004 -0.46168342 1.9215598
-0.81983227 -0.46022689 1.9114635
-0.83250284 -0.45940933 1.9039867
-0.84155929 -0.45665783 1.8883866
-0.85886657 -0.4584004 1.8914557
-0.87218839 -0.45799395 1.8854973
-0.88505954 -0.45736742 1.8785599
-0.91257256 -0.46420863 1.9024106
-0.91491055 -0.45823026 1.8732153
-0.93806142 -0.46269917 1.887017
-0.95312852 -0.46310675 1.8839954
-0.96820366 -0.46350625 1.8808556
-0.97022349 -0.45773485 1.8524494
-0.9892441 -0.46003449 1.8569388
-1.0051417 -0.46083748 1.8552276
-1.006073 -0.45485181 1.8259407
-1.0118678 -0.45119885 1.8061287
-1.0203216 -0.44881448 1.7914312
-1.0451663 -0.45360741 1.8055263
-1.0658298 -0.45648336 1.8117633
-1.0622118 -0.44902018 1.7765956
-1.0556335 -0.44051328 1.7373791
-1.0511112 -0.43306896 1.7025106
-1.0771199 -0.43823269 1.7176126
-1.1206199 -0.4502973 1.7597201
-1.1320467 -0.44933668 1.7502702
-1.1119186 -0.43602541 1.6923983
-1.0958877 -0.4246189 1.6422347
-1.133168 -0.43389395 1.6727667
-1.1527581 -0.43625847 1.67619
-1.1657757 -0.43610975 1.6697708
1.3154235 -0.50065845 1.8514813
1.2905082 -0.49681672 1.8436993
1.2812057 -0.49896607 1.8582385
1.2543036 -0.49423128 1.8468187
1.2351866 -0.49248782 1.8465112
1.227354 -0.49525589 1.8631972
1.2024431 -0.49111599 1.8535868
1.1949742 -0.49408576 1.8709415
1.170272 -0.48991531 1.860945
1.1697825 -0.4959037 1.8898007
1.1315801 -0.48585328 1.8569123
1.1293364 -0.4911814 1.8831545
1.1119878 -0.48999384 1.8841826
1.1058897 -0.49379808 1.9045142
1.08609 -0.4915044 1.9010762
1.0811294 -0.49595538 1.9238815
1.0599521 -0.49298725 1.9176147
1.0430896 -0.49197072 1.9188784
1.0381515 -0.49662963 1.9424154
1.0040699 -0.48727989 1.9106004
0.99630064 -0.49061248 1.9287723
0.96901947 -0.48429298 1.9085871
0.96328014 -0.48871118 1.930963
0.94533396 -0.48697698 1.9287846
0.9337768 -0.48853123 1.9396547
0.91963255 -0.48875979 1.9451584
0.90913409 -0.49096456 1.9585334
0.87880772 -0.48235846 1.9283068
0.86477846 -0.48255986 1.9334176
0.85306114 -0.48408005 1.9437922
0.83626503 -0.48272088 1.942438
0.82669306 -0.4855572 1.9580355
0.81361347 -0.48639774 1.9654753
0.78044403 -0.47504056 1.923077
0.76652014 -0.47519425 1.9274846
0.76101291 -0.48066989 1.9536204
0.74724275 -0.4810366 1.9587978
0.7351349 -0.48250869 1.9684501
0.72127038 -0.48286361 1.9734468
0.70346349 -0.48053992 1.9673215
0.69185233 -0.48243994 1.978545
0.66853613 -0.47608516 1.9555459
0.6609121 -0.48087195 1.9785864
0.64099276 -0.47672683 1.9645206
0.6251235 -0.475474 1.9623584
0.61276567 -0.47689587 1.9712497
0.60986358 -0.48591927 2.0117984
0.59436005 -0.48509729 2.0112491
0.56845337 -0.47553173 1.9740369
0.54910487 -0.47110295 1.9581627
0.54452437 -0.47944459 1.9957365
0.53398997 -0.48285258 2.0126069
0.50851297 -0.47256321 1.9718403
0.49373633 -0.47191447 1.9714876
0.48058975 -0.47283143 1.977658
0.45407319 -0.46025196 1.9268136
0.44938073 -0.46969882 1.9688339
0.42618638 -0.45979297 1.9290291
0.41952583 -0.46765897 1.9643027
0.40751225 -0.46989369 1.9757124
0.39215317 -0.46829259 1.970803
0.37342367 -0.46239975 1.9475933
0.35836959 -0.4607805 1.9424306
0.33699363 -0.45057943 1.9006954
0.33355859 -0.4645153 1.9615493
0.31359872 -0.45564932 1.9253122
0.29876953 -0.45377234 1.9187425
0.28646183 -0.4557285 1.9284469
0.26889166 -0.44909057 1.9014162
0.25968596 -0.45645896 1.934105
0.24443126 -0.45342201 1.9223012
0.2295839 -0.45082909 1.912317
0.21532126 -0.44913307 1.9060944
0.20359832 -0.45286101 1.923018
0.19241099 -0.45839489 1.9476275
0.17197508 -0.44105619 1.8742025
0.16137555 -0.44816145 1.9054201
0.14803186 -0.448241 1.906476
0.13468136 -0.44831371 1.9074407
0.12126339 -0.44815311 1.9073423
0.10867163 -0.45138457 1.9217386
0.095694594 -0.4537034 1.9321626
0.081223615 -0.4485364 1.9103878
0.067265451 -0.44472152 1.8943492
0.054882661 -0.45200664 1.9259173
0.041171864 -0.44953787 1.9155347
0.027705934 -0.4486489 1.9118749
0.014408607 -0.45138031 1.9237055
0.00093646004 -0.44843695 1.911096
-0.012120858 -0.43687171 1.8613856
-0.025884449 -0.44955763 1.9157957
-0.039354049 -0.45022088 1.9184946
-0.051852461 -0.44226307 1.8841039
-0.066908948 -0.4549264 1.9382155
-0.080594301 -0.45556834 1.9406322
-0.092442334 -0.44713801 1.9040402
-0.10689547 -0.45184556 1.9237866
-0.1212048 -0.45495901 1.9366208
-0.13408692 -0.45262769 1.9260306
-0.14904365 -0.45708525 1.9444937
-0.1616841 -0.45428756 1.9317819
-0.17301995 -0.44854042 1.9063795
-0.18749177 -0.45116463 1.9167868
-0.19455615 -0.43680653 1.8544254
-0.21549585 -0.45344758 1.9246935
-0.2296516 -0.45469111 1.9289807
-0.24327268 -0.45479634 1.9283333
-0.25651312 -0.45421651 1.9246953
-0.27186528 -0.45724654 1.9364053
-0.28287807 -0.45303738 1.917153
-0.29925272 -0.45740762 1.9344336
-0.31696272 -0.46334881 1.9583137
-0.33163536 -0.46453887 1.9618672
-0.34519851 -0.4641417 1.9585958
-0.35262612 -0.45584363 1.9216859
-0.37205693 -0.4631024 1.9508212
-0.38928136 -0.46719334 1.9663969
-0.40188032 -0.46564212 1.957962
-0.4169957 -0.46701282 1.9618428
-0.42616278 -0.4618485 1.9380035
-0.44466305 -0.46680564 1.9569062
-0.45085672 -0.45893455 1.9215533
-0.47068653 -0.46499881 1.9449548
-0.48571503 -0.46610838 1.9473654
-0.49310052 -0.46002582 1.9194459
-0.51767552 -0.46987495 1.9584452
-0.52784586 -0.46647483 1.9416845
-0.53624809 -0.46172705 1.9192435
-0.55210441 -0.46347451 1.9239639
-0.56532079 -0.46297461 1.9192036
-0.58101869 -0.46448234 1.9227561
-0.59565026 -0.46508721 1.9224581
-0.6088441 -0.46456751 1.9174027
-0.62888348 -0.46917811 1.9335941
-0.65315586 -0.47667715 1.9616338
-0.65599585 -0.46854848 1.9247888
-0.66090661 -0.46220714 1.8953699
-0.67324442 -0.46121296 1.8880351
-0.6884985 -0.46221647 1.8888725
-0.71393681 -0.46988332 1.9170269
-0.72328007 -0.4668659 1.901134
-0.7345438 -0.46517867 1.8906639
-0.74641407 -0.46393096 1.8819441
-0.76110846 -0.46445212 1.8803908
-0.77619106 -0.46518722 1.8796272
-0.78867239 -0.46436495 1.8724467
-0.80950373 -0.46840259 1.8849227
-0.82627869 -0.46999589 1.88736
-0.82892144 -0.4636316 1.8575482
-0.84402239 -0.46433002 1.8562431
-0.87095821 -0.47141153 1.880523
-0.86851567 -0.46261948 1.8409041
-0.88906127 -0.46615565 1.850727
-0.90553385 -0.46748021 1.8515762
-0.90090406 -0.4580358 1.8094209
-0.91456652 -0.45803478 1.8049065
-0.94864392 -0.46810746 1.8402525
-0.94544798 -0.45976228 1.8024961
-0.97416973 -0.46695504 1.8261135
-0.99495113 -0.47019258 1.8339498
-0.99622321 -0.46424857 1.8056276
-1.0066382 -0.46266979 1.7944344
-1.0198309 -0.46239322 1.7882813
-1.0329907 -0.46210918 1.7820319
-0.99836415 -0.44073704 1.6939285
-1.0387805 -0.45261818 1.7348276
-1.074279 -0.46207911 1.7660513
-1.063351 -0.45158398 1.720279
-1.073501 -0.45019081 1.7095592
-1.0788599 -0.44684768 1.6913548
-1.0724131 -0.43875602 1.6550827
-1.1001744 -0.44468641 1.6721541
-1.1039737 -0.44090548 1.6522774
-1.1042805 -0.43583515 1.6275672
-1.1164057 -0.43549302 1.6206831
-1.099568 -0.42399076 1.5719597
1.3012515 -0.51003981 1.8288342
1.294301 -0.51314193 1.8466138
1.2728375 -0.51049554 1.8434651
1.2536654 -0.50871664 1.8433443
1.2334809 -0.50647986 1.8414249
1.1834934 -0.49180436 1.793622
1.2018366 -0.50551236 1.8501353
1.1870615 -0.50545663 1.8559436
1.1593565 -0.49982488 1.8409652
1.1375415 -0.49662235 1.8348296
1.1254634 -0.49764305 1.8443267
1.1187974 -0.50111431 1.8629571
1.0956626 -0.49720344 1.8538352
1.0824546 -0.49775314 1.8613691
1.0643888 -0.49605373 1.8603336
1.0506699 -0.49636132 1.8667959
1.0355101 -0.49598727 1.8705956
1.0476669 -0.50887096 1.924861
1.004742 -0.49498639 1.8769751
0.98328722 -0.49143004 1.8683206
0.97001415 -0.49191839 1.8750628
0.95055789 -0.48923898 1.8695334
0.95242584 -0.49761972 1.9065948
0.91758066 -0.48678163 1.8693264
0.91566855 -0.49334908 1.8993319
0.89765054 -0.49130955 1.8958987
0.87075758 -0.48426858 1.8728505
0.85427791 -0.48288313 1.8717042
0.86633068 -0.49784803 1.9344972
0.85731179 -0.50100559 1.9511244
0.83623689 -0.49710515 1.9399645
0.824027 -0.49843016 1.9492606
0.79506767 -0.48949051 1.9179586
0.78988796 -0.49513221 1.9441464
0.77186531 -0.49278325 1.9386604
0.76204294 -0.49567965 1.9539026
0.74204427 -0.49194092 1.9427022
0.72935414 -0.49299592 1.9504875
0.71725917 -0.49450344 1.9600204
0.70897996 -0.49875659 1.980487
0.67841381 -0.48718208 1.9374911
0.67477685 -0.49486497 1.9715878
0.65138763 -0.48808119 1.9475305
0.6400736 -0.49024495 1.9593542
0.61600369 -0.48251522 1.9312183
0.60413307 -0.48420411 1.9409704
0.59047502 -0.48450664 1.9450612
0.58117795 -0.48848939 1.9639963
0.56228065 -0.48440048 1.9501525
0.54177952 -0.47868514 1.9295833
0.5241403 -0.47526455 1.9182187
0.51760042 -0.48199525 1.9481019
0.49497664 -0.47370648 1.9167233
0.49254733 -0.48482275 1.9644365
0.47852007 -0.48484039 1.9668118
0.46515042 -0.48554555 1.9719312
0.44915262 -0.48346573 1.9655762
0.42451018 -0.47164759 1.9191892
0.40679538 -0.46699619 1.9020611
0.39461279 -0.46859419 1.9105132
0.38006976 -0.46740314 1.9074379
0.36631745 -0.46713254 1.9080777
0.35099769 -0.46476564 1.9000105
0.33715808 -0.46424797 1.8994888
0.3233434 -0.46372303 1.8988689
0.30877772 -0.46202889 1.8933507
0.29415646 -0.4600943 1.8867637
0.28262326 -0.46303535 1.9002731
0.26794121 -0.46085349 1.8925263
0.25569493 -0.46285206 1.9020225
0.24625427 -0.47043148 1.9345986
0.23119192 -0.46753046 1.9236796
0.2140169 -0.45973012 1.8923528
0.19932304 -0.45657805 1.8802282
0.18756248 -0.46017462 1.8960613
0.17400323 -0.45957085 1.8943907
0.16055796 -0.45919311 1.8935953
0.14780514 -0.46090636 1.9014326
0.13454306 -0.46121415 1.903366
0.1187491 -0.45195362 1.8654191
0.10812413 -0.46250871 1.909875
0.092539221 -0.45183226 1.8658901
0.080401734 -0.45724347 1.8888227
0.067538641 -0.459849 1.900016
0.054386277 -0.46128124 1.9062635
0.040859792 -0.45943984 1.8988117
0.027537504 -0.45922464 1.8980727
0.01432873 -0.46226934 1.9108561
0.0009340769 -0.46063989 1.9041015
-0.012051645 -0.44733578 1.8486371
-0.025870895 -0.46272683 1.9126828
-0.03848182 -0.45337602 1.8735728
-0.052011266 -0.45685202 1.8878459
-0.065407842 -0.45798743 1.8923049
-0.078548364 -0.45724937 1.8888985
-0.092253521 -0.45953691 1.8980303
-0.10614305 -0.46205011 1.9080354
-0.11794403 -0.45592692 1.882031
-0.13005947 -0.45213017 1.865659
-0.14453681 -0.4564876 1.88315
-0.15837751 -0.45827252 1.8898712
-0.17432655 -0.46541005 1.9187696
-0.18335111 -0.4543632 1.8720416
-0.19415282 -0.44890517 1.8484986
-0.21226718 -0.45997876 1.893523
-0.22610666 -0.4610278 1.8968577
-0.24326755 -0.46835446 1.9261481
-0.25395566 -0.46310347 1.9032301
-0.27091891 -0.46924835 1.9274583
-0.27934778 -0.46073025 1.8909193
-0.29422429 -0.46313822 1.899541
-0.30630133 -0.46112165 1.8898038
-0.32308966 -0.46606991 1.9087692
-0.33780897 -0.46775627 1.9141817
-0.35244542 -0.46920225 1.9185268
-0.36480579 -0.46762326 1.9103388
-0.37913486 -0.46859053 1.912573
-0.39195892 -0.46769515 1.9070771
-0.40713742 -0.46957508 1.9129189
-0.42843696 -0.47816494 1.9462056
-0.43651241 -0.47192004 1.9185576
-0.44555005 -0.46706301 1.8965782
-0.46590072 -0.47400206 1.9228103
-0.4777489 -0.47214115 1.9129677
-0.49237072 -0.4730486 1.9143682
-0.49789435 -0.46540239 1.8808399
-0.51033252 -0.46445236 1.8745704
-0.53337705 -0.47295594 1.9066617
-0.54302615 -0.46945307 1.8898643
-0.55820709 -0.47078687 1.8926393
-0.56814027 -0.46773669 1.8775871
-0.58533514 -0.47066775 1.8866726
-0.60415006 -0.47473839 1.9002517
-0.61959517 -0.47603881 1.902549
-0.63174254 -0.47480404 1.8945608
-0.64537179 -0.47471192 1.8911066
-0.65803093 -0.47392502 1.8847963
-0.6709615 -0.4733617 1.8793199
-0.68451345 -0.47325063 1.8755867
-0.69602293 -0.4717595 1.8662789
-0.71466511 -0.47506717 1.8760265
-0.72086465 -0.47013503 1.8529085
-0.73748332 -0.4720549 1.8569705
-0.7600075 -0.47761616 1.8753459
-0.7684204 -0.47426909 1.8583659
-0.77813989 -0.4718318 1.8449533
-0.78962308 -0.47052974 1.8359741
-0.81150627 -0.47536388 1.8510367
-0.82614702 -0.47586504 1.8489683
-0.84320706 -0.47772041 1.8521118
-0.85628611 -0.4772968 1.84626
-0.85445416 -0.46870738 1.8085642
-0.88736629 -0.47914726 1.8448298
-0.89019537 -0.47327185 1.8176383
-0.90693605 -0.47485861 1.8193144
-0.9119277 -0.47033826 1.7973487
-0.92287445 -0.46897721 1.7875432
-0.93913239 -0.47031546 1.7880418
-0.94814986 -0.46804133 1.7746252
-0.95425647 -0.46441463 1.7560227
-0.96951503 -0.46528095 1.754514
-0.97342372 -0.46075118 1.7324454
-0.99195766 -0.46317294 1.7366977
-0.99164516 -0.45684758 1.7078323
-1.0067245 -0.45768636 1.7059789
-1.0143603 -0.4551633 1.6914301
-1.0273865 -0.45509282 1.6860371
-1.0164322 -0.44453609 1.6414917
-1.0482138 -0.45270032 1.6666819
-1.0418173 -0.4443782 1.6305491
-1.0507828 -0.44273186 1.6191926
-1.0681701 -0.44463077 1.6208556
-1.103953 -0.45405042 1.6499909
-1.0971849 -0.44595334 1.6147951
-1.0866749 -0.4365415 1.574944
-1.1095674 -0.44061041 1.5842059
1.2842635 -0.51796335 1.8021826
1.2524449 -0.51093185 1.7838588
1.2303132 -0.5077346 1.7788384
1.2361125 -0.51612455 1.8147545
1.2080284 -0.51039815 1.8005739
1.2015506 -0.51377243 1.8186713
1.1980454 -0.51851547 1.8416754
1.1593038 -0.50793713 1.8096632
1.1587572 -0.51403838 1.8374552
1.098682 -0.49355233 1.7691762
1.0905826 -0.49618924 1.7842304
1.0753484 -0.49560624 1.7875557
1.0645583 -0.49708304 1.7983103
1.0410192 -0.49256694 1.7870921
1.0292327 -0.49356481 1.7959404
1.0192758 -0.49547929 1.8081092
1.0354513 -0.51032645 1.8679714
