# .PCD v0.7 - Point Cloud Data file format
VERSION 0.7
FIELDS x y z
SIZE 4 4 4
TYPE F F F
COUNT 1 1 1
WIDTH 1450
HEIGHT 1
VIEWPOINT 0 0 0 1 0 0 0
POINTS 1450
DATA ascii
-1.0119481 -0.30568483 1.9900442
-1.0389533 -0.30928943 2.0085893
-1.0470073 -0.30722994 1.9899613
-1.0516053 -0.30422869 1.9651908
-1.0658015 -0.30404899 1.9587625
-1.0685204 -0.30064496 1.9313813
-1.0723643 -0.29764521 1.906652
-1.0754322 -0.29451311 1.8810987
-1.088098 -0.29405725 1.8727667
-1.0801725 -0.28812087 1.829285
-1.0924751 -0.28766313 1.8209234
-1.1052302 -0.28733462 1.8133262
-1.0982326 -0.28194329 1.773543
-1.0917877 -0.2768254 1.7356257
-1.0912349 -0.27330813 1.7079321
-1.0699822 -0.26475376 1.648649
-1.0539209 -0.25767252 1.5988739
-1.0646033 -0.25721952 1.5907115
-1.0851859 -0.25914127 1.5972804
-1.1014403 -0.25999716 1.597092
1.4062041 -0.34360746 2.0068989
1.3937302 -0.3444708 2.0190425
1.3833729 -0.3458834 2.0343933
1.3608094 -0.34424144 2.0315537
1.3459508 -0.34453264 2.0400989
1.3095738 -0.33925632 2.0152457
1.2996267 -0.34078184 2.0309484
1.2963535 -0.34411645 2.0575235
1.2823924 -0.34466189 2.0672855
1.2468034 -0.33933485 2.0413873
1.2273719 -0.33832511 2.0414557
1.2150249 -0.3392674 2.0533051
1.1951447 -0.3381032 2.052222
1.1724062 -0.33608863 2.0457973
1.1565893 -0.33603078 2.0512516
1.1316857 -0.33329511 2.0401053
1.1168994 -0.33350456 2.0469947
1.105335 -0.33469546 2.0598929
1.0743587 -0.32995853 2.035893
1.0541989 -0.32845455 2.0318074
1.0435425 -0.32991087 2.0460882
1.0230423 -0.32825211 2.0408187
1.0087584 -0.32856783 2.0478137
0.99443173 -0.32887918 2.0547073
0.98006302 -0.32918611 2.0614998
0.95275003 -0.32508609 2.04035
0.93111253 -0.32282165 2.0306344
0.91854304 -0.32367846 2.0406001
0.90071768 -0.32268089 2.0387034
0.88766187 -0.32338721 2.0475683
0.86644787 -0.32109448 2.0372005
0.85261798 -0.32150578 2.0440128
0.84134561 -0.32291341 2.0571504
0.821886 -0.32117277 2.0499978
0.80113149 -0.31885234 2.0389869
0.78516412 -0.31838575 2.0398073
0.76957434 -0.31805715 2.0414314
0.75672662 -0.31887126 2.0503724
0.73410994 -0.31551915 2.0322168
0.71571428 -0.31388155 2.0250552
0.70965797 -0.31769994 2.053308
0.68814552 -0.31461415 2.0365362
0.68138576 -0.31828561 2.0637653
0.66282171 -0.31648374 2.0551832
0.64736301 -0.31611642 2.0558898
0.62904191 -0.31430179 2.0470166
0.60918313 -0.31161445 2.0322993
0.59727699 -0.31296322 2.0440185
0.58389497 -0.31358668 2.0509083
0.56414795 -0.31073615 2.0348148
0.55489004 -0.31366515 2.0567815
0.53712893 -0.31181583 2.0471177
0.52268493 -0.31184307 2.0497787
0.50728655 -0.31128615 2.0484958
0.49055457 -0.30985421 2.0413244
0.47461534 -0.30885154 2.0369139
0.46178934 -0.30987546 2.0458992
0.44613761 -0.30900806 2.0422344
0.43258917 -0.30958822 2.0481367
0.41799966 -0.3094376 2.0491014
0.4032284 -0.30913696 2.0489926
0.38427043 -0.30548573 2.0264168
0.37040263 -0.30575618 2.0299644
0.35769191 -0.30704147 2.0402417
0.34339172 -0.30701238 2.0416584
0.33315006 -0.31076676 2.0683763
0.31553245 -0.30766913 2.0490856
0.29848152 -0.3048563 2.0316107
0.28617454 -0.30684981 2.0463378
0.27199864 -0.30694336 2.0482423
0.25744253 -0.30659452 2.0471044
0.24071509 -0.30346736 2.0271976
0.22896184 -0.30661219 2.0494406
0.21486871 -0.30683306 2.0519381
0.19998796 -0.30588064 2.0464628
0.18448272 -0.30375424 2.0329998
0.17138496 -0.30556783 2.0460403
0.15698877 -0.30518505 2.0442021
0.14324152 -0.30611295 2.051146
0.12811208 -0.30396602 2.0372648
0.11493487 -0.30649298 2.054882
0.10099294 -0.30740711 2.0615463
0.086510949 -0.30670768 2.0572445
0.07205832 -0.30585706 2.0518544
0.057296496 -0.30295348 2.0325203
0.043408994 -0.30428723 2.0417645
0.029115645 -0.30269033 2.0311317
0.015268713 -0.30708686 2.0609589
0.0010003111 -0.30752859 2.063982
-0.013144543 -0.30416152 2.0411882
-0.027290948 -0.30430093 2.0420394
-0.041808173 -0.30706874 2.0605965
-0.055406261 -0.30339497 2.0355406
-0.069566704 -0.30366635 2.0370922
-0.083751023 -0.30393279 2.0385463
-0.098288208 -0.30521816 2.0468199
-0.11278133 -0.30605975 2.0520279
-0.12716855 -0.30645767 2.054172
-0.1403763 -0.30421928 2.0384517
-0.15537834 -0.30592325 2.0492833
-0.16818635 -0.30338389 2.031414
-0.18330196 -0.30507791 2.0420432
-0.19762591 -0.30530575 2.0427139
-0.21105577 -0.3042143 2.0344288
-0.22524579 -0.30428675 2.0339243
-0.24173559 -0.30727398 2.0529742
-0.25436375 -0.30529317 2.0385129
-0.26872966 -0.30549717 2.0386915
-0.28189448 -0.30438375 2.0299497
-0.29835528 -0.30676562 2.0446229
-0.31161499 -0.30578905 2.0366704
-0.32322723 -0.30335149 2.0188632
-0.338011 -0.30396974 2.0214899
-0.35352108 -0.30516538 2.0279095
-0.36931103 -0.30650103 2.0351861
-0.38485399 -0.30754015 2.0403974
-0.39671198 -0.30566558 2.0260682
-0.4117136 -0.30625907 2.028162
-0.431411 -0.31018922 2.052423
-0.43977362 -0.30597889 2.0223498
-0.45808187 -0.30873537 2.038614
-0.47397128 -0.3097437 2.0431516
-0.48605916 -0.30828151 2.0312033
-0.50035888 -0.30826569 2.0287974
-0.51948661 -0.31114247 2.0454803
-0.52719206 -0.30720744 2.0169818
-0.5462631 -0.3099283 2.032454
-0.56217247 -0.31076163 2.0353537
-0.57573605 -0.31028894 2.0295591
-0.59227026 -0.31140128 2.034132
-0.61227167 -0.31424004 2.0499587
-0.62014675 -0.31086782 2.024895
-0.63094562 -0.30908141 2.0102141
-0.65541041 -0.31392014 2.0388477
-0.64557987 -0.30247939 1.9609433
-0.68804795 -0.31550795 2.0428259
-0.71566629 -0.32132563 2.0773962
-0.71897078 -0.31621194 2.0406866
-0.73080027 -0.31497735 2.0291922
-0.75099659 -0.31732664 2.0408716
-0.76689517 -0.31780437 2.0403144
-0.78106397 -0.31756082 2.0350108
-0.7891022 -0.31487998 2.013927
-0.80857223 -0.31677535 2.0222676
-0.82485646 -0.31737721 2.0221782
-0.84004897 -0.31754524 2.0192153
-0.85485989 -0.31756574 2.0152259
-0.87239283 -0.31857952 2.0174952
-0.87294787 -0.31346297 1.9806219
-0.90889597 -0.32101488 2.0243044
-0.92381036 -0.32101402 2.0198121
-0.93580347 -0.32001412 2.0089202
-0.95444 -0.32128185 2.0122879
-0.96675652 -0.32041579 2.0021024
-0.98983127 -0.32308763 2.0140851
-1.011803 -0.32532495 2.0231829
-1.0116408 -0.32048443 1.9878873
-1.0323049 -0.32228634 1.9940783
-1.0526496 -0.32393843 1.9991986
-1.055467 -0.32022622 1.9709103
-1.0513589 -0.31454527 1.9304831
-1.0624754 -0.31351253 1.9188432
-1.0686591 -0.31107181 1.8984963
-1.0643533 -0.30568367 1.8600713
-1.0749048 -0.30464831 1.848386
-1.07784 -0.30150932 1.8238285
-1.0870754 -0.30019066 1.8103789
-1.0910549 -0.29747242 1.7884156
-1.080271 -0.29084733 1.74286
-1.0925003 -0.29050541 1.7353443
-1.0887781 -0.28598195 1.702649
-1.077154 -0.27951711 1.6584305
-1.0525112 -0.2698682 1.5953888
-1.0746745 -0.27230647 1.6045668
-1.0876141 -0.27237809 1.5995495
-1.1010964 -0.27258244 1.5952474
1.409699 -0.36046803 2.010149
1.4033457 -0.36296475 2.0312903
1.3812599 -0.36140317 2.0294826
1.3576257 -0.35939497 2.0249958
1.3384634 -0.35853687 2.0269005
1.3354398 -0.36203322 2.0535741
1.2901844 -0.35402641 2.0143414
1.2801889 -0.35561675 2.0299299
1.2819796 -0.36056173 2.0648463
1.2438372 -0.35425839 2.0347576
1.2285 -0.35437196 2.0416107
1.2136333 -0.35462591 2.0492005
1.1972389 -0.35443434 2.0541129
1.1744783 -0.35232779 2.0477204
1.1528367 -0.35050464 2.0428371
1.1356211 -0.34999567 2.0455487
1.1184289 -0.34947988 2.0481188
1.0821855 -0.34291282 2.0147631
1.0845778 -0.34857556 2.0537133
1.0728929 -0.34981248 2.0664155
1.0454456 -0.34587085 2.0481741
1.0209539 -0.34280416 2.0349648
1.002787 -0.34180051 2.0339513
0.99240148 -0.34345901 2.0488267
0.97975123 -0.34437326 2.0591829
0.962017 -0.34350121 2.058696
0.93614435 -0.33964828 2.0400631
0.91502136 -0.33742064 2.0311024
0.90678817 -0.33995119 2.0509233
0.88268542 -0.33651721 2.0343978
0.87232774 -0.33829549 2.0495188
0.85234523 -0.33633804 2.0417554
0.83884329 -0.33691368 2.0493877
0.82418317 -0.33703655 2.0541742
0.80734444 -0.33625659 2.0533295
0.78349936 -0.33247414 2.0338807
0.76724637 -0.33182997 2.0336466
0.75784361 -0.33418128 2.0518506
0.73854721 -0.33217657 2.0430346
0.72563368 -0.33301955 2.0517747
0.70942777 -0.33235514 2.0510831
0.68823642 -0.32927734 2.0352707
0.67685091 -0.33085915 2.0483863
0.66260558 -0.3310822 2.0529685
0.64980733 -0.33205491 2.0621691
0.62883586 -0.32879922 2.0448177
0.61039364 -0.32674265 2.034857
0.59652966 -0.32709634 2.0399311
0.58181983 -0.32699224 2.0420578
0.56921035 -0.32809359 2.0517032
0.5516361 -0.32631585 2.0431314
0.5389452 -0.32740882 2.0525908
0.52445281 -0.32743767 2.0552652
0.50806206 -0.32624909 2.0501602
0.48993194 -0.32384112 2.0372369
0.47980517 -0.32673755 2.0578675
0.46076977 -0.3235589 2.0398767
0.44556871 -0.32295483 2.0381446
0.43366125 -0.32477719 2.0517786
0.41452223 -0.32112277 2.0304728
0.40650511 -0.3261309 2.0642943
0.38432336 -0.31972519 2.025255
0.37062961 -0.32016027 2.0297749
0.35740092 -0.32104781 2.0371244
0.3426235 -0.32056007 2.0356162
0.32819641 -0.32037202 2.035954
0.31407997 -0.32048392 2.0381451
0.2986649 -0.31921843 2.0314386
0.28444493 -0.31916791 2.0324497
0.27100071 -0.32002807 2.0392408
0.25502676 -0.31783077 2.0263317
0.24202122 -0.31929219 2.0368569
0.22877397 -0.32059675 2.0463181
0.21407895 -0.31991094 2.0429156
0.19915514 -0.31876144 2.0364587
0.18557213 -0.31974632 2.0436749
0.17132568 -0.31965652 2.0439079
0.15625796 -0.3178798 2.0332036
0.14257643 -0.31885016 2.0401368
0.12843724 -0.31889817 2.0410612
0.11538832 -0.32200062 2.0616233
0.10038152 -0.31974423 2.0475562
0.086192191 -0.31977731 2.0481923
0.071929932 -0.3194994 2.046757
0.057470154 -0.31799215 2.0373206
0.043143544 -0.31647974 2.0277846
0.029457198 -0.32047167 2.0537221
0.015052517 -0.3168065 2.0301578
0.00099282712 -0.31941119 2.0470126
-0.012975638 -0.31420541 2.0133719
-0.027347032 -0.3190957 2.0448563
-0.041494969 -0.31893042 2.0436332
-0.055974513 -0.32074949 2.0551562
-0.069810502 -0.31889087 2.0428741
-0.083923362 -0.31871054 2.0413618
-0.098206989 -0.31913722 2.0437024
-0.11220351 -0.31864089 2.0400238
-0.12748836 -0.32150471 2.0579512
-0.14093454 -0.31962183 2.0452018
-0.15606663 -0.32155716 2.0570028
-0.17007186 -0.32104081 2.0529346
-0.18350187 -0.31960261 2.0428669
-0.19859745 -0.32106343 2.051404
-0.21280618 -0.32099092 2.0500004
-0.22581647 -0.31923327 2.0376945
-0.23843804 -0.31716621 2.0233452
-0.2540333 -0.31906462 2.0344207
-0.26927894 -0.32034659 2.0414588
-0.28085276 -0.31735092 2.0209718
-0.29612696 -0.31862292 2.0278106
-0.30942991 -0.31775472 2.0208566
-0.32575539 -0.31993067 2.0333383
-0.33951503 -0.31951013 2.0291176
-0.35340095 -0.31923741 2.0257788
-0.36865991 -0.32017818 2.030128
-0.38581577 -0.32263532 2.0440791
-0.40110597 -0.3234123 2.0472183
-0.41001216 -0.319166 2.0182726
-0.42823595 -0.32221422 2.0357444
-0.4435904 -0.32297623 2.0385695
-0.46051186 -0.32479569 2.0480335
-0.47514439 -0.32493925 2.0467672
-0.48566842 -0.32234752 2.0280881
-0.50254387 -0.32399905 2.0362442
-0.51665461 -0.32382575 2.0327637
-0.5317362 -0.32425386 2.0330133
-0.54659218 -0.32452554 2.0321977
-0.56120235 -0.32464099 2.0303214
-0.58144397 -0.32792675 2.048322
-0.59454709 -0.32712433 2.0405009
-0.61094612 -0.3281303 2.0439701
-0.62310815 -0.32686687 2.033124
-0.63515222 -0.32560042 2.0222082
-0.6473788 -0.32448179 2.0121655
-0.66226423 -0.32471561 2.0105076
-0.67245573 -0.322687 1.9946774
-0.70166975 -0.3296808 2.0349252
-0.71612567 -0.32959631 2.0310063
-0.72956508 -0.32905674 2.0241926
-0.74159038 -0.32791311 2.0135756
-0.76007783 -0.32961583 2.0204878
-0.77729082 -0.33071202 2.0235453
-0.79709584 -0.33284992 2.0329111
-0.81342196 -0.33348367 2.0329101
-0.82719105 -0.3330653 2.0263655
-0.84166813 -0.33294153 2.0215549
-0.858042 -0.33355951 2.0211971
-0.87406534 -0.33402255 2.0197999
-0.89051139 -0.33462897 2.0191834
-0.90659255 -0.33508059 2.0175319
-0.92106223 -0.33493167 2.0121527
-0.93342948 -0.3340351 2.0021813
-0.95961511 -0.33803421 2.0216568
-0.97585696 -0.33846137 2.019464
-0.98214185 -0.33547443 1.9967009
-1.0141211 -0.34122223 2.0262048
-1.0238103 -0.3394112 2.010344
-1.0405687 -0.33996233 2.0085177
-1.0500232 -0.33814555 1.9925319
-1.0597751 -0.33647445 1.9773835
-1.052906 -0.32964608 1.9317433
-1.0659488 -0.32915348 1.9235636
-1.0750735 -0.32748073 1.9083873
-1.081112 -0.32492509 1.8880153
-1.0745611 -0.31870288 1.8462325
-1.0694875 -0.31307495 1.8080443
-1.0877396 -0.31433198 1.8099555
-1.0860937 -0.30987996 1.7786946
-1.0794051 -0.3041186 1.739959
-1.0911 -0.30361506 1.7316097
-1.0857767 -0.29844609 1.6964468
-1.0939485 -0.29706642 1.6830677
-1.0516278 -0.28217152 1.5926489
-1.0732301 -0.28457716 1.600989
-1.103297 -0.28914517 1.6214128
-1.1012949 -0.28530028 1.5941323
1.4018689 -0.37438348 1.9970514
1.3916779 -0.3759304 2.0124199
1.3713763 -0.37475038 2.0130031
1.3593552 -0.37583202 2.0257432
1.3558993 -0.37933573 2.0516372
1.337669 -0.37874046 2.0551636
1.3093783 -0.37524763 2.0426919
1.2703123 -0.36854252 2.0123389
1.2716898 -0.37354991 2.0463145
1.2403414 -0.36894935 2.0271852
1.2311301 -0.37090021 2.0441961
1.2132269 -0.37024903 2.0466955
1.1804978 -0.36499679 2.0233884
1.169194 -0.36631727 2.0366471
1.1601832 -0.36840159 2.0541546
1.1400144 -0.36695144 2.0517321
1.1133448 -0.36333933 2.0369687
1.1064756 -0.36617845 2.0585492
1.0796269 -0.36239219 2.0425074
1.0571365 -0.35998046 2.0340955
1.0357149 -0.35786703 2.0272331
1.0210552 -0.35806194 2.0334358
1.0046262 -0.35763285 2.0359821
0.98735964 -0.35688794 2.036618
0.97858101 -0.35923558 2.0549748
0.95504171 -0.3561531 2.0419445
0.92886728 -0.35197288 2.0223954
0.91108531 -0.35088789 2.0206172
0.8933773 -0.34979573 2.0186896
0.88864636 -0.35383373 2.0465503
0.87357503 -0.35382268 2.0507841
0.85357374 -0.35177946 2.0430458
0.83186597 -0.34894747 2.0305548
0.82134724 -0.35079142 2.0453887
0.79844958 -0.34731886 2.0288925
0.78535384 -0.34805956 2.037086
0.77010745 -0.34785724 2.0396461
0.74874353 -0.34482959 2.025403
0.74030054 -0.34775048 2.0462861
0.72637033 -0.34816033 2.0522392
0.71624732 -0.3504501 2.0693059
0.69837964 -0.34896722 2.0638616
0.68031663 -0.34732026 2.0573323
0.66207844 -0.34550884 2.0497131
0.64604574 -0.34479222 2.0485389
0.62862092 -0.34328216 2.0425198
0.61582404 -0.34428763 2.051502
0.59770203 -0.3422924 2.042387
0.58242625 -0.34186834 2.0426235
0.56953883 -0.34286031 2.0513158
0.55374753 -0.34211034 2.0494363
0.53526992 -0.33961552 2.0369282
0.518691 -0.33822045 2.0309653
0.50599742 -0.33935151 2.0402129
0.48976132 -0.3381035 2.0349767
0.47406837 -0.33716625 2.0315399
0.4603925 -0.33764985 2.0366557
0.44583169 -0.33749467 2.0378211
0.43249473 -0.33828649 2.0446813
0.41790804 -0.33812162 2.04565
0.40370834 -0.33826929 2.048454
0.38437051 -0.33396357 2.0239949
0.37296495 -0.3364839 2.041142
0.35591841 -0.33391303 2.0271041
0.34266466 -0.33483475 2.034354
0.32823575 -0.33463824 2.0346944
0.31665668 -0.33746102 2.0534761
0.29898629 -0.33375207 2.0321431
0.2844792 -0.3333807 2.0312018
0.27038696 -0.33348197 2.0330944
0.2562823 -0.33357829 2.0348911
0.24251288 -0.33414781 2.0395327
0.22705747 -0.33232054 2.0293651
0.21359316 -0.33335835 2.0367575
0.19917883 -0.33295566 2.0352187
0.18550521 -0.33382419 2.0414455
0.17052668 -0.3322939 2.0328252
0.15582585 -0.33107716 2.0260658
0.14177294 -0.33113205 2.027081
0.1296839 -0.33629167 2.0595279
0.11496294 -0.33505929 2.0524788
0.099720977 -0.33174506 2.0325089
0.085460111 -0.33114034 2.0291958
0.072041579 -0.33420473 2.0484753
0.057311069 -0.33119327 2.0301697
0.043565832 -0.33376822 2.0463035
0.02948869 -0.33506 2.0544491
0.015265123 -0.33554766 2.0575628
0.0009858089 -0.33123645 2.0309653
-0.012989881 -0.32851785 2.0141428
-0.027310874 -0.33282453 2.040657
-0.041459996 -0.33281183 2.0404227
-0.055473674 -0.33199501 2.0351574
-0.069651224 -0.33229133 2.0367043
-0.083852649 -0.33258244 2.0381536
-0.098218448 -0.33334738 2.0424633
-0.11253979 -0.33378756 2.0447021
-0.12750284 -0.33581924 2.0566952
-0.14169244 -0.33560985 2.0547917
-0.15549095 -0.33459711 2.0478702
-0.16960566 -0.33437753 2.0457771
-0.18422522 -0.33511034 2.0494878
-0.19720304 -0.33296585 2.035408
-0.21181834 -0.33368829 2.0389245
-0.22811148 -0.3367973 2.0570569
-0.23984432 -0.33320361 2.0338805
-0.25442821 -0.33375072 2.0361145
-0.26790014 -0.33285841 2.0294366
-0.28223711 -0.33307657 2.0295165
-0.29885539 -0.33583742 2.0451291
-0.31317875 -0.3358852 2.0440173
-0.32827693 -0.3367236 2.047682
-0.34230775 -0.33644283 2.0444198
-0.35664669 -0.33647528 2.0430081
-0.37045711 -0.33602583 2.0385826
-0.38749871 -0.33843181 2.0515323
-0.39775831 -0.33495435 2.028487
-0.41182059 -0.3348088 2.0257242
-0.4266721 -0.3352932 2.026731
-0.44510353 -0.33846858 2.0440364
-0.45432475 -0.33466071 2.018786
-0.46832314 -0.33449614 2.0156362
-0.48755547 -0.33796948 2.0344834
-0.50166398 -0.33779371 2.0311058
-0.5196172 -0.34014457 2.0429487
-0.53428298 -0.34027445 2.0412621
-0.54818732 -0.33992526 2.0366096
-0.56257743 -0.33988744 2.0337675
-0.57508034 -0.33873996 2.0241718
-0.59077424 -0.33948222 2.0258846
-0.60905039 -0.34163758 2.0359972
-0.62318265 -0.34142217 2.0317843
-0.6387586 -0.34198958 2.0321877
-0.64595592 -0.33814555 2.006134
-0.67340064 -0.34483737 2.0429652
-0.68727744 -0.34444413 2.0373719
-0.70271206 -0.34483173 2.036356
-0.71620995 -0.34427255 2.0296321
-0.72698873 -0.34245488 2.0153801
-0.74676919 -0.34486565 2.0261204
-0.75878495 -0.34366682 2.0154035
-0.77210057 -0.34309092 2.0083091
-0.80041301 -0.34907678 2.0397823
-0.81096053 -0.34723809 2.0250652
-0.82654321 -0.34758258 2.0231149
-0.83685708 -0.3457382 2.0082662
-0.85430151 -0.34685257 2.0106649
-0.87689441 -0.34998393 2.0247157
-0.89378184 -0.35077167 2.0249772
-0.90709585 -0.3501541 2.0169823
-0.93179488 -0.35388038 2.03408
-0.94349623 -0.35263035 2.0222449
-0.94876355 -0.34905234 1.9969403
-0.96441776 -0.34934703 1.9939257
-0.99005502 -0.35319415 2.0112066
-1.0032284 -0.35254636 2.0025706
-1.0190103 -0.35282081 1.9991373
-1.0370582 -0.35386053 1.9999732
-1.0560882 -0.3552008 2.0024045
-1.0580297 -0.35083678 1.9723946
-1.0723084 -0.35062829 1.9659165
-1.0646408 -0.34334773 1.9195099
-1.0732677 -0.34144804 1.9034889
-1.0709835 -0.33617416 1.8685399
-1.0989187 -0.34039986 1.8867655
-1.0831376 -0.33115032 1.8296955
-1.0828186 -0.3268047 1.8000953
-1.0959715 -0.32658365 1.793409
-1.0795599 -0.31766853 1.7386504
-1.0875887 -0.31607661 1.7244341
-1.0843503 -0.3112891 1.6926669
-1.064123 -0.30179873 1.635275
-1.0566841 -0.29611829 1.5989223
-1.0728647 -0.29711258 1.5989748
-1.0896521 -0.29824987 1.5996994
-1.1165574 -0.30209854 1.6149489
1.3957177 -0.38858858 1.9863025
1.3978899 -0.39366323 2.0195282
1.3731009 -0.39117494 2.0136237
1.3665396 -0.3938821 2.0345883
1.3456634 -0.39247847 2.0340977
1.3280809 -0.39201325 2.0383909
1.3142196 -0.39264846 2.048368
1.2924192 -0.39089817 2.0457034
1.2650187 -0.38738921 2.0335944
1.2393936 -0.38434207 2.023736
1.2286714 -0.38589758 2.0381885
1.2128025 -0.38585594 2.0440822
1.1984007 -0.38628611 2.0524151
1.1712314 -0.38255751 2.0383506
1.156881 -0.38297179 2.0463917
1.1362787 -0.38129944 2.0430961
1.1181387 -0.38041848 2.0439503
1.100047 -0.37952936 2.0446508
1.0943944 -0.38296777 2.0687931
1.0726169 -0.38078132 2.0622575
1.0523287 -0.37906706 2.0581594
1.0444894 -0.38185298 2.0786085
1.003409 -0.37238666 2.0316954
0.99386835 -0.37451437 2.0483358
0.97866362 -0.37454084 2.0533431
0.95928419 -0.37294507 2.0492876
0.9441092 -0.37295884 2.0540404
0.92609614 -0.37183356 2.0523772
0.89147836 -0.36389294 2.0126221
0.87895745 -0.36485586 2.0223231
0.86865652 -0.36678934 2.0373988
0.85365438 -0.36677071 2.0414913
0.84273273 -0.36853585 2.0555272
0.82654381 -0.36801979 2.0566783
0.80104399 -0.36326236 2.0338118
0.78790152 -0.3640351 2.0420203
0.77468783 -0.36480397 2.0501444
0.75256121 -0.36132368 2.0341039
0.73269957 -0.35881349 2.0234282
0.72186029 -0.36070946 2.0377057
0.70220065 -0.35818511 2.026741
0.69656098 -0.36285689 2.0567472
0.67822826 -0.36097583 2.0492821
0.65973371 -0.3589232 2.0407243
0.651124 -0.36227727 2.0630746
0.63012725 -0.35873505 2.0457828
0.6161679 -0.35912609 2.0509887
0.59803885 -0.35704678 2.0418921
0.58356154 -0.35709825 2.0449829
0.56671178 -0.35566348 2.0394144
0.55636078 -0.35833898 2.0575285
0.54429376 -0.3600238 2.0698702
0.52020115 -0.35362715 2.0352983
0.50557822 -0.35348669 2.0368884
0.49462852 -0.3559815 2.0537226
0.47612301 -0.35302493 2.0387971
0.45957658 -0.35138187 2.0314145
0.44545946 -0.35155022 2.0345042
0.43152538 -0.35187903 2.0384626
0.4171665 -0.35187212 2.0403936
0.401476 -0.35070148 2.0354502
0.38477752 -0.34853137 2.024575
0.37194696 -0.34983271 2.0339456
0.35663417 -0.34881008 2.0296352
0.34286338 -0.34927335 2.0339661
0.32780209 -0.34840512 2.0304153
0.31370232 -0.34852654 2.0326045
0.29858997 -0.34748104 2.0278664
0.28804177 -0.35190749 2.0552504
0.27015707 -0.34736502 2.0297935
0.25594184 -0.34729904 2.0306103
0.2419596 -0.34756002 2.033288
0.23002204 -0.35097325 2.054492
0.2167822 -0.35272056 2.0658202
0.20244317 -0.35280076 2.0672503
0.18765154 -0.35204405 2.0636721
0.17324629 -0.35194689 2.063921
0.1573444 -0.34851712 2.0444067
0.14411116 -0.35090423 2.0592034
0.12877324 -0.3481279 2.0434074
0.11541257 -0.35067117 2.0590057
0.10107515 -0.35054633 2.0587595
0.086334452 -0.34875137 2.0485632
0.07197994 -0.34811598 2.045162
0.057869758 -0.34864047 2.0485613
0.043716133 -0.34915957 2.0518653
0.028844975 -0.34168071 2.0077477
0.015092226 -0.34585202 2.0325472
0.00099494332 -0.34851938 2.0483787
-0.013243908 -0.34918305 2.0522809
-0.027484037 -0.34917521 2.0521421
-0.041464213 -0.34699732 2.0390902
-0.055692878 -0.34747806 2.0417163
-0.069725335 -0.34678796 2.0373459
-0.083820976 -0.34659186 2.0358367
-0.098557733 -0.34872076 2.0480208
-0.11195907 -0.34618357 2.032531
-0.12745477 -0.34996533 2.0543559
-0.14163908 -0.34974721 2.0524538
-0.1558032 -0.34952369 2.0504558
-0.16921815 -0.34779787 2.0395167
-0.18336681 -0.34773031 2.0383141
-0.19816805 -0.34882119 2.0438855
-0.21163772 -0.34757909 2.0356193
-0.22575878 -0.34749556 2.034127
-0.24055766 -0.34840357 2.038415
-0.25591218 -0.34997022 2.0465114
-0.26985136 -0.349538 2.0427616
-0.28078279 -0.3454487 2.0174274
-0.29916927 -0.35048395 2.045717
-0.31291419 -0.3498702 2.0407023
-0.32769009 -0.35041252 2.0424144
-0.34493154 -0.35343587 2.0586131
-0.35651499 -0.35065165 2.0406632
-0.37084609 -0.3506805 2.0391524
-0.38408273 -0.34971061 2.0317268
-0.39685813 -0.34840527 2.0222805
-0.41284084 -0.34990862 2.029191
-0.43075487 -0.35289368 2.0446661
-0.44139653 -0.34992051 2.0252895
-0.45889229 -0.35239702 2.0376279
-0.47347525 -0.35255423 2.0363681
-0.48829213 -0.35287121 2.0359647
-0.50124723 -0.35186315 2.027792
-0.51483905 -0.35134575 2.0224071
-0.53185666 -0.35313085 2.030297
-0.54798996 -0.35425028 2.0342379
-0.56054598 -0.35305896 2.0247381
-0.58049965 -0.35647005 2.041743
-0.58891624 -0.3528029 2.0178299
-0.60911381 -0.35620007 2.0345573
-0.62353557 -0.35613999 2.0312874
-0.63735551 -0.35574678 2.0260327
-0.65894753 -0.35961249 2.0451136
-0.67438978 -0.36002687 2.0443058
-0.68860143 -0.35978061 2.0396414
-0.70054466 -0.35838413 2.0283463
-0.71334678 -0.35747519 2.0197766
-0.72573459 -0.35639918 2.0101988
-0.74243653 -0.35744244 2.0125899
-0.76128322 -0.35945818 2.0203912
-0.78837174 -0.36521581 2.0492277
-0.79941612 -0.36346522 2.0354991
-0.80046612 -0.35731709 1.9969624
-0.82551265 -0.36190894 2.0188508
-0.83920664 -0.36144993 2.0122247
-0.85400391 -0.36147371 2.0082328
-0.87814909 -0.36538628 2.0258868
-0.893471 -0.36555827 2.022516
-0.90959805 -0.3660486 2.0208318
-0.92043597 -0.36442897 2.007344
-0.93362504 -0.36377692 1.9991745
-0.96022666 -0.36828959 2.0194778
-0.96322864 -0.36375117 1.9896914
-0.98971164 -0.36808321 2.0087233
-1.0090357 -0.36966312 2.0124614
-1.0137531 -0.36592406 1.9869689
-1.0348908 -0.36813456 1.9939724
-1.0575536 -0.37081674 2.0034006
-1.0641594 -0.36787233 1.9821193
-1.0705252 -0.36492807 1.9608419
-1.0614134 -0.35686076 1.911902
-1.0772337 -0.35728076 1.9088331
-1.0808624 -0.35369998 1.8841864
-1.0802511 -0.34884432 1.8527439
-1.0837593 -0.34542796 1.8290604
-1.0824394 -0.34058017 1.797788
-1.0858599 -0.33732778 1.7750634
-1.0796984 -0.33121732 1.737247
-1.0803975 -0.32733649 1.7113198
-1.0839677 -0.32440966 1.6904668
-1.0851607 -0.32085055 1.6663282
-1.0541447 -0.30796653 1.5935247
-1.0642797 -0.30726638 1.5845413
-1.0870529 -0.31018892 1.5943165
-1.1044327 -0.31152287 1.5957071
1.3918077 -0.40330338 1.9787019
1.3778054 -0.40383124 1.9882957
1.3659513 -0.40500844 2.0010588
1.3507025 -0.40519488 2.0088303
1.3343308 -0.40504482 2.0148387
1.3308067 -0.40883818 2.0405898
1.2829868 -0.39894992 1.9973553
1.2646796 -0.39810807 1.9995042
1.2640369 -0.40287519 2.030021
1.23689 -0.39920864 2.0176532
1.2282231 -0.40148902 2.035466
1.1958352 -0.39597401 2.0133255
1.1900476 -0.39923769 2.0360436
1.1693393 -0.39751616 2.0330851
1.1545297 -0.39778039 2.0402539
1.1392047 -0.39787194 2.0464516
1.1210295 -0.39695671 2.0473359
1.0922128 -0.39219457 2.0280666
1.0765681 -0.39209387 2.0329342
1.0591036 -0.39131778 2.0341783
1.0367675 -0.38869259 2.0256085
1.0322222 -0.3927584 2.0521092
1.009994 -0.3901172 2.0432396
0.99350941 -0.38964739 2.0457053
0.97366953 -0.38782647 2.0409129
0.95769048 -0.38751003 2.0439887
0.9474529 -0.38954398 2.0594938
0.92455143 -0.38635254 2.047071
0.90425503 -0.38416156 2.0398438
0.8841086 -0.38196123 2.0324349
0.86603522 -0.38059613 2.0293834
0.85031992 -0.38023764 2.031641
0.83759356 -0.38122678 2.0410807
0.82514679 -0.38238141 2.0513563
0.79859775 -0.37692276 2.0257633
0.7974903 -0.38349256 2.0652404
0.76920968 -0.37699693 2.0337536
0.75602537 -0.37779057 2.0417523
0.73343182 -0.37382022 2.0237021
0.72944605 -0.37936544 2.0574944
0.71124196 -0.37759295 2.0512598
0.70038944 -0.37973094 2.066354
0.67490071 -0.37385422 2.037401
0.66039377 -0.37393492 2.0410328
0.65235698 -0.37776604 2.0652473
0.63133502 -0.37408099 2.0479903
0.61453021 -0.37277886 2.0437624
0.59754109 -0.37129891 2.038456
0.58253777 -0.3710098 2.039649
0.5701701 -0.3724274 2.0502305
0.54746252 -0.36698827 2.0226798
0.53238606 -0.36650908 2.0225599
0.51782382 -0.36636716 2.0242398
0.50326532 -0.36621985 2.0258162
0.49421266 -0.370188 2.0502841
0.48017254 -0.37054735 2.0545707
0.46588206 -0.37072995 2.0578012
0.44529039 -0.36574861 2.0320554
0.43217203 -0.36677849 2.0398674
0.41994837 -0.36866465 2.0524237
0.40511063 -0.3683086 2.0523417
0.38810208 -0.36587971 2.040539
0.37497324 -0.36706239 2.0489547
0.36022311 -0.36668903 2.0485544
0.34256887 -0.36320552 2.0305629
0.32767585 -0.3624745 2.0279899
0.31417829 -0.36329088 2.0340724
0.29947239 -0.36272117 2.03227
0.28616473 -0.36387259 2.0401185
0.27043959 -0.36190978 2.0303051
0.25620955 -0.36184102 2.0311248
0.24198118 -0.36176682 2.0318468
0.22808175 -0.36220571 2.0354075
0.21291932 -0.36056408 2.0271189
0.20160133 -0.36566207 2.0569522
0.1880213 -0.36712343 2.0661266
0.17170541 -0.36304241 2.0438039
0.15848406 -0.365358 2.0576937
0.14132254 -0.35814807 2.0174599
0.12767677 -0.35924047 2.0242739
0.1139437 -0.36032757 2.0309975
0.10093955 -0.36435321 2.0543523
0.085847437 -0.36092699 2.0353117
0.071125813 -0.35801399 2.0191159
0.057322145 -0.3594254 2.0274293
0.043553084 -0.36204398 2.0425427
0.029241126 -0.36049944 2.0339282
0.015260615 -0.36397308 2.0537767
0.00099122594 -0.36137778 2.0390592
-0.013118751 -0.3599894 2.0311384
-0.027289819 -0.36084753 2.0359249
-0.04160703 -0.36239278 2.0445523
-0.055831052 -0.3625465 2.0452049
-0.069965631 -0.36217487 2.0428069
-0.084069781 -0.36179769 2.040313
-0.098048799 -0.36106852 2.0357559
-0.11304509 -0.36379698 2.0507736
-0.12728366 -0.36374894 2.0499539
-0.14084271 -0.36196426 2.0392108
-0.1550751 -0.36207831 2.0391841
-0.16915202 -0.36184067 2.037096
-0.18355817 -0.36228952 2.038837
-0.19875167 -0.36411643 2.0483205
-0.21115059 -0.36092177 2.0292811
-0.22534715 -0.36100805 2.0287712
-0.23954679 -0.36108878 2.0281637
-0.25617707 -0.36462003 2.0470076
-0.26782459 -0.36106086 2.0256796
-0.28202286 -0.36112505 2.0247796
-0.29735443 -0.36256495 2.03158
-0.31205183 -0.36313549 2.0333977
-0.32771882 -0.36473539 2.0409474
-0.34204951 -0.36477652 2.039634
-0.35654658 -0.3649846 2.0391924
-0.37000355 -0.36415306 2.0328331
-0.38393572 -0.36383358 2.0292912
-0.39764896 -0.36333692 2.024689
-0.41131759 -0.3628352 2.019995
-0.43018743 -0.36680192 2.0402796
-0.44664788 -0.36852416 2.0478852
-0.45957854 -0.36731735 2.0390184
-0.47396114 -0.36730903 2.0367913
-0.48810777 -0.36712375 2.0335059
-0.50528669 -0.3691645 2.0425613
-0.51488703 -0.36570877 2.0209136
-0.53289753 -0.36825189 2.0326025
-0.5485487 -0.3690736 2.0346231
-0.56582224 -0.37091658 2.0422254
-0.57144636 -0.36522189 2.0079682
-0.5919888 -0.36910704 2.0267248
-0.60973012 -0.37110209 2.0349059
-0.62330419 -0.37052694 2.0288022
-0.63917661 -0.37131312 2.030133
-0.65179563 -0.37021637 2.021019
-0.67414111 -0.37457168 2.0417922
-0.68740797 -0.37380457 2.0343261
-0.70348489 -0.37456563 2.0351634
-0.71112788 -0.37089679 2.0116997
-0.73644549 -0.37640873 2.0383189
-0.74046981 -0.37103453 2.0054646
-0.75271457 -0.36990705 1.9957265
-0.77471489 -0.37352577 2.0116911
-0.80199051 -0.37950668 2.0403011
-0.81402761 -0.3781901 2.0292566
-0.8248418 -0.37636259 2.0154037
-0.83248961 -0.37317991 1.9942135
-0.85100967 -0.37489665 1.9993445
-0.86496741 -0.37457943 1.993451
-0.88879079 -0.37847382 2.0100245
-0.90685493 -0.37982824 2.0128655
-0.92051166 -0.37932271 2.0056844
-0.93411708 -0.3788124 1.9984096
-0.94724977 -0.37812936 1.9901513
-0.96544391 -0.3794567 1.9924675
-0.97678667 -0.37809181 1.9804581
-1.005155 -0.38325942 2.0028031
-1.0053651 -0.37769637 1.9685663
-1.0363235 -0.38367876 1.9948884
-1.0484722 -0.38262552 1.984201
-1.0572796 -0.38039997 1.96735
-1.0851768 -0.38500917 1.9860095
-1.0786412 -0.37744308 1.9413387
-1.0619 -0.36655867 1.879649
-1.0633891 -0.36217383 1.8517033
-1.0783761 -0.36244112 1.847724
-1.0918633 -0.3622039 1.8410747
-1.0810329 -0.35400936 1.7936921
-1.0962101 -0.35443151 1.7903868
-1.0875853 -0.34724352 1.7483405
-1.0800009 -0.34056124 1.7090086
-1.0872743 -0.33867005 1.6940014
-1.0804794 -0.33249521 1.6574335
-1.0640332 -0.32353297 1.6070207
-1.0753659 -0.32312888 1.5996122
-1.0827818 -0.3215709 1.5864037
-1.0967649 -0.32197675 1.5829313
1.3856217 -0.41724408 1.9677755
1.3633025 -0.41523802 1.9651514
1.3510439 -0.4162854 1.9769944
1.3343098 -0.41596204 1.9822077
1.3208201 -0.41665453 1.9922239
1.2970786 -0.41409078 1.9864382
1.2798457 -0.41356772 1.9903871
1.2678654 -0.41475004 2.0025349
1.2459335 -0.41266587 1.9986933
1.2282209 -0.41194406 2.0013759
1.2150941 -0.41276154 2.0115128
1.2093982 -0.41615725 2.0342891
1.1792097 -0.41110346 2.0153425
1.1644994 -0.41138297 2.022588
1.1555418 -0.41372976 2.0400288
1.1368685 -0.41261455 2.0402031
1.1243722 -0.41374153 2.0514641
1.0959828 -0.40896952 2.033123
1.0766217 -0.40747827 2.0310483
1.0659444 -0.40927812 2.045423
1.0453043 -0.40724939 2.0404332
1.0239105 -0.40486217 2.0334945
1.0117848 -0.40612274 2.0449195
0.99399191 -0.40511236 2.0447438
0.97920763 -0.40531579 2.0506485
0.93863279 -0.3946811 2.0011013
0.94218522 -0.40255761 2.0460167
0.92581588 -0.40204087 2.047956
0.9122476 -0.40274355 2.0560737
0.88572818 -0.39765552 2.0342779
0.86263484 -0.39395681 2.0194671
0.85151094 -0.39569071 2.0326154
0.8369056 -0.39583975 2.0375013
0.81278014 -0.39140961 2.0185156
0.81193542 -0.39823425 2.0579584
0.78837347 -0.39396387 2.0395832
0.7744571 -0.39444208 2.045862
0.74996126 -0.3894453 2.0234082
0.73748684 -0.39061612 2.0331302
0.72230142 -0.39036953 2.0353496
0.70968825 -0.39153174 2.0449014
0.69007051 -0.38879687 2.0338557
0.67710322 -0.38977155 2.0422711
0.65953797 -0.38808399 2.0365503
0.64444476 -0.3878074 2.0381985
0.63022727 -0.38805726 2.0425589
0.61485636 -0.38759181 2.0430493
0.60363799 -0.3897852 2.0575988
0.5831179 -0.38593176 2.0399032
0.56706637 -0.38491419 2.0372016
0.53856313 -0.37516925 1.9878126
0.53690803 -0.38410571 2.0380952
0.51689464 -0.38004008 2.018827
0.50825477 -0.38434318 2.0442829
0.49241498 -0.38329452 2.041008
0.48087406 -0.38562983 2.0558245
0.46613055 -0.38546246 2.0571401
0.44762611 -0.38207415 2.0410464
0.43139353 -0.38046408 2.0344262
0.41723451 -0.38063496 2.0373235
0.40570727 -0.38330448 2.0536404
0.38813055 -0.38024461 2.0389595
0.37482405 -0.38129392 2.0464005
0.35601658 -0.37660784 2.0227432
0.34438333 -0.37943688 2.0396795
0.32629767 -0.37509379 2.0176971
0.31509683 -0.3786301 2.038352
0.30006465 -0.3776798 2.0346134
0.28509942 -0.37672329 2.0307667
0.27278253 -0.37934935 2.0463176
0.25904167 -0.38017622 2.0520349
0.24257699 -0.37686828 2.035192
0.22994849 -0.37947938 2.0504868
0.21548726 -0.37921181 2.0500503
0.20085241 -0.37857893 2.0475554
0.1880337 -0.38153434 2.064553
0.17147216 -0.37675571 2.0393186
0.15601827 -0.37376738 2.023766
0.14413273 -0.37958297 2.0561848
0.12860894 -0.3760429 2.0374839
0.11537511 -0.37915096 2.0550101
0.1005148 -0.37703714 2.0439579
0.086347766 -0.37725583 2.0455785
0.072059922 -0.37692887 2.0441527
0.057630148 -0.37551641 2.0367298
0.043160371 -0.37283826 2.0223224
0.029215155 -0.37429285 2.0304377
0.015232608 -0.37754121 2.0482945
0.00098369666 -0.37268582 2.0217907
-0.013107089 -0.373763 2.0276513
-0.027422739 -0.37681377 2.044235
-0.041391257 -0.37464014 2.0321977
-0.0555683 -0.37497985 2.0338335
-0.069602646 -0.37441409 2.030457
-0.084317125 -0.37708086 2.0446768
-0.09791486 -0.37470439 2.0312798
-0.11122423 -0.37196288 2.0158305
-0.12662633 -0.37605032 2.037606
-0.14152609 -0.37797287 2.0474889
-0.15553083 -0.37737203 2.0435321
-0.16940685 -0.37658581 2.038501
-0.18269517 -0.37471578 2.027499
-0.19857681 -0.37805143 2.0448086
-0.21339124 -0.37904453 2.0492768
-0.22741374 -0.37859458 2.0458164
-0.2392209 -0.37472755 2.0236983
-0.25413209 -0.37588295 2.0288517
-0.26746061 -0.37469912 2.0212169
-0.28190953 -0.37512496 2.0222676
-0.29850903 -0.37823495 2.0378199
-0.31400242 -0.37972379 2.0444877
-0.32743281 -0.37869677 2.0374384
-0.3420746 -0.37909812 2.0380669
-0.35573101 -0.37841895 2.0327756
-0.37125662 -0.379704 2.0380447
-0.38396499 -0.37811914 2.0277264
-0.39843315 -0.37831885 2.0269885
-0.40608364 -0.37225497 1.9923962
-0.42860562 -0.37977344 2.0309856
-0.44480503 -0.38138464 2.0376267
-0.45767793 -0.38013208 2.02878
-0.47200221 -0.38012436 2.0265646
-0.48472148 -0.37886271 2.0175498
-0.50156683 -0.38080591 2.0256572
-0.51734143 -0.38185063 2.0288596
-0.53392971 -0.38342309 2.0347986
-0.54069835 -0.37804687 2.0035357
-0.55959672 -0.38120994 2.0178192
-0.57497239 -0.38187492 2.0186801
-0.5917598 -0.38342214 2.0241518
-0.60724884 -0.38407433 2.0247731
-0.62335134 -0.38507512 2.0271597
-0.6389308 -0.38571462 2.0275433
-0.65815097 -0.38847458 2.0390561
-0.67081547 -0.38732907 2.0298266
-0.685579 -0.3874186 2.0270519
-0.70289642 -0.38891742 2.0316176
-0.71607393 -0.38811114 2.0239685
-0.72286499 -0.38394505 1.9986328
-0.74086624 -0.38577986 2.0047207
-0.75519145 -0.38566676 2.0005157
-0.77020097 -0.38590077 1.9980475
-0.78485829 -0.38595289 1.9945508
-0.80679613 -0.38951811 2.0092363
-0.8134079 -0.38568878 1.9854115
-0.83896255 -0.3908183 2.0079703
-0.85068887 -0.38944012 1.9967197
-0.86581057 -0.38963675 1.9935397
-0.88806027 -0.39298108 2.0064714
-0.90450299 -0.39368808 2.0057101
-0.92139077 -0.39456293 2.0057125
-0.93459529 -0.39385766 1.9975389
-0.94605213 -0.39244956 1.9857179
-0.96038365 -0.39225891 1.9800439
-0.98421723 -0.3958962 1.9937209
-1.0034593 -0.39760554 1.9974672
-1.0107785 -0.39460978 1.9773296
-1.0336763 -0.39769459 1.987816
-1.029313 -0.39035285 1.9457576
-1.0610552 -0.39671758 1.9724935
-1.0828888 -0.39925218 1.979838
-1.0929853 -0.39744911 1.9654145
-1.108238 -0.39754453 1.9603952
-1.1005503 -0.38951808 1.9150405
-1.0784615 -0.37667322 1.8460225
-1.0954474 -0.37763244 1.8453131
-1.081128 -0.36791366 1.7920417
-1.074307 -0.36096054 1.7525287
-1.0825138 -0.35916755 1.7383466
-1.0801116 -0.35394242 1.7074405
-1.0715129 -0.34683898 1.6675104
-1.0843444 -0.34676003 1.6617059
-1.0636238 -0.33608124 1.6047367
-1.0711255 -0.33446661 1.5915915
-1.0862286 -0.33523539 1.5898458
-1.1008029 -0.33582523 1.5871553
1.3737773 -0.42927608 1.9486985
1.3387365 -0.42313111 1.9273695
1.3477365 -0.43092486 1.969985
1.3179092 -0.42634138 1.9555461
1.3035109 -0.42669937 1.9638047
1.2987034 -0.43024337 1.9868201
1.2793363 -0.4289915 1.9874705
1.260551 -0.42790627 1.9887813
1.2402593 -0.42627621 1.9874183
1.2313207 -0.42855623 2.004354
1.22069 -0.43029833 2.0187287
1.2069203 -0.43096462 2.0279691
1.181218 -0.42733166 2.0167005
1.1723461 -0.42977169 2.0342102
1.1541235 -0.4288035 2.0354023
1.1359465 -0.42782602 2.0364399
1.127696 -0.43061176 2.0554657
1.0932322 -0.42332551 2.025912
1.0807844 -0.42447817 2.0368881
1.0515079 -0.41895896 2.0154693
1.0399886 -0.42045665 2.027931
1.0230712 -0.41978401 2.029773
1.0070512 -0.41946495 2.0332432
0.99103785 -0.41913879 2.0365884
0.98093319 -0.42134041 2.0522487
0.95612621 -0.41719663 2.0366657
0.94140828 -0.41739252 2.0423014
0.93069202 -0.41939807 2.0568013
0.89959508 -0.4121334 2.0253594
0.88772428 -0.41357997 2.0369096
0.87151551 -0.41302061 2.0384343
0.8587333 -0.41409391 2.048003
0.84400713 -0.41425139 2.0529404
0.82232034 -0.41093615 2.0404272
0.80013472 -0.40724435 2.0258832
0.78489143 -0.4070136 2.0285704
0.76584649 -0.40476462 2.0210218
0.75306231 -0.4058013 2.0299146
0.7405284 -0.40701699 2.0396521
0.73345554 -0.41134489 2.0650744
0.71132958 -0.40723506 2.0477457
0.6910525 -0.40403154 2.0348697
0.67498904 -0.40320593 2.033951
0.65867341 -0.4021897 2.0319731
0.64507133 -0.40282193 2.0383081
0.62824714 -0.40142468 2.0342157
0.61432868 -0.40186176 2.039407
0.59954572 -0.40174082 2.0416732
0.58503157 -0.40179852 2.0447791
0.5657903 -0.39852947 2.0307319
0.55571198 -0.40171245 2.0497365
0.53345644 -0.39602703 2.0230608
0.52177233 -0.39809185 2.0361829
0.50875556 -0.39922875 2.0444703
0.49450532 -0.39943606 2.0478976
0.47778666 -0.39760169 2.0406976
0.46594036 -0.39983407 2.0544581
0.44723397 -0.39613378 2.0374281
0.43324232 -0.39650241 2.0413957
0.41686743 -0.39464024 2.0337131
0.402702 -0.39481148 2.0365114
0.38851854 -0.39497709 2.039212
0.36921656 -0.38975221 2.0137806
0.36043844 -0.39566275 2.0462582
0.34196541 -0.39097995 2.0234747
0.32694164 -0.39000574 2.0199401
0.31511518 -0.39293015 2.0366912
0.30022475 -0.39213023 2.0339322
0.28810197 -0.39504561 2.0505297
0.27099204 -0.39106977 2.0310187
0.25722197 -0.39174032 2.035744
0.24316871 -0.39203295 2.0384269
0.23017859 -0.39418262 2.0507786
0.21305014 -0.38906038 2.0249398
0.20076816 -0.39268938 2.0449245
0.18476754 -0.38904384 2.0266762
0.16984637 -0.38725534 2.0180984
0.15715288 -0.39068168 2.0368419
0.14168337 -0.3872022 2.019244
0.12818587 -0.38893881 2.0289874
0.11401344 -0.38880423 2.0288332
0.099417813 -0.38698423 2.0197499
0.086105511 -0.39038283 2.0380485
0.07182321 -0.38985696 2.0356424
0.057440188 -0.38839167 2.0282276
0.043329533 -0.38841337 2.0285716
0.02935724 -0.39029545 2.0386419
0.015110048 -0.38862512 2.0299523
0.00099610002 -0.39161518 2.0457261
-0.013284477 -0.3931058 2.0535436
-0.027319515 -0.38955057 2.03474
-0.041492991 -0.38972241 2.0354872
-0.055598129 -0.38932824 2.0331917
-0.069272354 -0.38668853 2.0190182
-0.084160887 -0.39057454 2.0391114
-0.098343417 -0.39053538 2.0384891
-0.11246758 -0.39030352 2.0367885
-0.12645188 -0.38969263 2.0330312
-0.13978395 -0.38739717 2.0203586
-0.15516911 -0.39069101 2.0369909
-0.16715327 -0.38558733 2.0094473
-0.18314396 -0.38980052 2.030766
-0.19717273 -0.38953286 2.0284901
-0.2100669 -0.38720965 2.0153694
-0.22516181 -0.38898003 2.0236537
-0.238548 -0.38776374 2.0162146
-0.25523907 -0.39175561 2.0359888
-0.26990989 -0.39238876 2.0380955
-0.28260076 -0.39022434 2.0254996
-0.29569674 -0.38879949 2.0167167
-0.31105638 -0.39034519 2.0233927
-0.3269873 -0.39244172 2.032865
-0.34064031 -0.39174339 2.0276775
-0.35608888 -0.39308321 2.0330489
-0.36917883 -0.39181644 2.0247684
-0.37872097 -0.38701814 1.9980577
-0.39883429 -0.39297953 2.0272508
-0.41469043 -0.39447904 2.0331476
-0.4266156 -0.39226395 2.0196884
-0.43483528 -0.38689509 1.9898371
-0.45792091 -0.39467531 2.028053
-0.4695949 -0.39244613 2.0143454
-0.48041826 -0.38965836 1.997707
-0.49854666 -0.39278564 2.0115552
-0.5168907 -0.395904 2.0252492
-0.52404618 -0.3905158 1.9950401
-0.5463329 -0.39639014 2.0227373
-0.56433082 -0.39893097 2.0331676
-0.57206571 -0.39427111 2.0065632
-0.58549219 -0.39366585 2.0007157
-0.60504121 -0.39710781 2.0155027
-0.61305219 -0.39299315 1.9915749
-0.63456488 -0.39752388 2.0117218
-0.65758878 -0.40277857 2.0354116
-0.67116195 -0.40214187 2.0289934
-0.68342853 -0.40076604 2.0187585
-0.67929322 -0.39003024 1.9610395
-0.71513879 -0.40221986 2.0194051
-0.72424132 -0.39918122 2.0005786
-0.73955768 -0.39961955 1.9992582
-0.75558436 -0.40041745 1.999663
-0.76884341 -0.39974624 1.992597
-0.78347623 -0.39980093 1.9891063
-0.80429387 -0.40295219 2.0010338
-0.82013041 -0.4035399 2.0000181
-0.82996505 -0.4012056 1.9843489
-0.84920639 -0.40342063 1.9912781
-0.87092513 -0.40671739 2.0034528
-0.88335979 -0.40564087 1.9938174
-0.894099 -0.40383396 1.9805158
-0.91449898 -0.4063783 1.9886328
-0.93132919 -0.40728071 1.9885353
-0.93684876 -0.40328604 1.964298
-0.9531793 -0.40399644 1.9631158
-0.96737832 -0.40379569 1.957386
-0.99164945 -0.40774226 1.9717945
-1.0152822 -0.41131404 1.9842056
-1.0070908 -0.40207654 1.9343342
-1.0389757 -0.40887472 1.962172
-1.0583224 -0.41061649 1.9653665
-1.0571058 -0.40444249 1.930353
-1.0987406 -0.41460764 1.9738135
-1.0832391 -0.40322921 1.9138486
-1.1318147 -0.41568848 1.9678396
-1.1056798 -0.40074146 1.891031
-1.1359792 -0.40637127 1.9121605
-1.1034478 -0.38966864 1.8274375
-1.0713255 -0.37353194 1.7457817
-1.0681193 -0.36775479 1.713213
-1.0765444 -0.36607558 1.6999439
-1.091715 -0.36670318 1.6974288
-1.0790992 -0.35809487 1.6518241
-1.0594149 -0.34737393 1.5966085
-1.0745201 -0.34817839 1.5949625
-1.0846878 -0.34738281 1.5858502
-1.0947818 -0.3465822 1.5766749
1.3630491 -0.44140065 1.9311743
1.3549238 -0.44380876 1.948663
1.3300439 -0.44072092 1.9417399
1.3168137 -0.44146615 1.9517229
1.2937709 -0.43890026 1.9468447
1.3088721 -0.44936839 2.0002754
1.2745717 -0.44292408 1.9778219
1.2642212 -0.44474635 1.9924201
1.2387137 -0.44121531 1.9827446
1.2190398 -0.43969917 1.9820404
1.207538 -0.44112948 1.9946378
1.2054265 -0.44607189 2.0232434
1.169863 -0.43860245 1.9950074
1.159173 -0.44038382 2.0090148
1.1488309 -0.44234717 2.0238256
1.1359612 -0.44337767 2.0342913
1.1070164 -0.43807557 2.0153439
1.0927887 -0.43853009 2.0229375
1.0679761 -0.43468922 2.0104415
1.0601234 -0.43774027 2.0299721
1.0417974 -0.43649271 2.0293562
1.0235367 -0.4352358 2.0285842
1.0127156 -0.43715224 2.0426402
0.99149197 -0.43456811 2.0354183
0.97337312 -0.43328544 2.0342119
0.96777964 -0.43762603 2.0595574
0.94388992 -0.43369967 2.0456288
0.92628783 -0.43258104 2.0449069
0.90200609 -0.42825389 2.0287647
0.88736439 -0.42843458 2.0340157
0.86924243 -0.42691222 2.0310261
0.85385311 -0.42670205 2.0342295
0.83623761 -0.42535213 2.031863
0.82746089 -0.42853066 2.05123
0.80231959 -0.42319492 2.0294371
0.78809452 -0.42352465 2.0348935
0.76622593 -0.41968045 2.0200341
0.75954533 -0.42416742 2.0455081
0.74555552 -0.42467028 2.0515897
0.72433352 -0.42099026 2.0372074
0.70655376 -0.41919932 2.031913
0.70551902 -0.42747828 2.075774
0.67501855 -0.41787553 2.032073
0.65087885 -0.41187185 2.0058093
0.64303833 -0.41614366 2.0298831
0.62971491 -0.41698322 2.0370507
0.61519969 -0.41705477 2.04037
0.60149598 -0.41769332 2.0464146
0.57888395 -0.41202316 2.02121
0.56607807 -0.41322106 2.02985
0.54731107 -0.41001603 2.0166121
0.53572041 -0.41215926 2.0298004
0.52688056 -0.41659638 2.0543392
0.50571537 -0.4112632 2.0302598
0.48697096 -0.40764341 2.0145791
0.47891924 -0.41302618 2.043668
0.46164486 -0.41054291 2.0334871
0.44892657 -0.4120819 2.043304
0.43224886 -0.40996796 2.0347981
0.41982344 -0.4118804 2.0463562
0.4057464 -0.41225103 2.0501375
0.39200288 -0.41300046 2.0557516
0.37486124 -0.41008982 2.0429318
0.3614684 -0.41121176 2.0502756
0.34409344 -0.40770856 2.034307
0.32851481 -0.40612233 2.0278876
0.31512886 -0.40722582 2.0349309
0.30123448 -0.40774596 2.0389752
0.28675696 -0.40748921 2.0390389
0.27268004 -0.40780464 2.0419199
0.25466684 -0.40194231 2.0135512
0.2419088 -0.40417334 2.0259595
0.22942647 -0.40717128 2.0421896
0.21448761 -0.40591815 2.0368755
0.20144296 -0.40832645 2.0500093
0.1842448 -0.40203989 2.0190883
0.17148902 -0.4052085 2.0359416
0.15588476 -0.40161091 2.0184755
0.14319065 -0.40554094 2.0390668
0.12929757 -0.40656748 2.0448916
0.11314341 -0.39985752 2.0114381
0.10057227 -0.40570316 2.0415616
0.085368507 -0.40110537 2.0186729
0.072135478 -0.40577987 2.0427399
0.057553031 -0.40329549 2.0304341
0.043248139 -0.40177113 2.0229311
0.028993558 -0.39946699 2.0114057
0.015132455 -0.40334389 2.0311775
0.00098996935 -0.40334752 2.0312328
-0.013133648 -0.40276477 2.0282481
-0.027333733 -0.40391588 2.0339963
-0.041514575 -0.40409392 2.0347428
-0.055680383 -0.40407228 2.034411
-0.069676526 -0.40307784 2.0290802
-0.083320275 -0.40072402 2.0167925
-0.098582275 -0.40570939 2.041657
-0.11247224 -0.40450284 2.0350575
-0.12573117 -0.40155119 2.0195525
-0.14093393 -0.40477696 2.0352874
-0.15539768 -0.40548411 2.0381908
-0.16966593 -0.40560535 2.0380599
-0.18341453 -0.40456161 2.0319674
-0.19689852 -0.40312597 2.0238314
-0.2095716 -0.40033361 2.0087759
-0.22420198 -0.40139604 2.0131502
-0.23947552 -0.40341645 2.0222919
-0.25464374 -0.40504399 2.0293729
-0.26864156 -0.40473619 2.0266142
-0.28167072 -0.40307313 2.0169568
-0.29797363 -0.40602997 2.0305228
-0.31240401 -0.40628186 2.0303812
-0.32498905 -0.40421659 2.0185108
-0.34097895 -0.40638188 2.0278592
-0.35475913 -0.40584549 2.02355
-0.3712948 -0.40838125 2.0345984
-0.38328013 -0.40590966 2.0204422
-0.39602938 -0.40439519 2.0110354
-0.4131501 -0.40729487 2.0236728
-0.42865151 -0.4084577 2.0275266
-0.44006357 -0.40577471 2.0120831
-0.45515001 -0.40654171 2.0138175
-0.46762562 -0.40500093 2.0039675
-0.4850046 -0.40767255 2.0150442
-0.49294093 -0.40248135 1.9869033
-0.51450312 -0.40839481 2.0139325
-0.52630472 -0.4064503 2.0018203
-0.53694785 -0.40373716 1.9858507
-0.55887729 -0.4094317 2.011466
-0.58332837 -0.41664222 2.04443
-0.58716691 -0.40913746 2.0045729
-0.58936208 -0.40087295 1.9609991
-0.60791904 -0.40386322 1.9728788
-0.63430268 -0.41179854 2.0089524
-0.65431744 -0.41533786 2.0232575
-0.66628844 -0.41372839 2.0122008
-0.67845339 -0.41230536 2.0020065
-0.68125004 -0.4053672 1.9648184
-0.70832932 -0.41286629 1.9980763
-0.72693503 -0.41522503 2.006109
-0.74027139 -0.41454029 1.9992343
-0.72111773 -0.39603841 1.9058605
-0.76817852 -0.41391361 1.9888886
-0.81786078 -0.43251228 2.0750146
-0.80105388 -0.41591215 1.9909226
-0.81349951 -0.41482216 1.981737
-0.8322655 -0.41693676 1.9878923
-0.84273279 -0.41489273 1.9739881
-0.85344088 -0.41303465 1.9609361
-0.8735072 -0.41569203 1.9694043
-0.8981576 -0.42040783 1.9875466
-0.9067831 -0.41759166 1.9697057
-0.92763793 -0.42040733 1.9785576
-0.93646961 -0.41777116 1.9614712
-0.95748729 -0.42056882 1.970016
-0.97867382 -0.42335469 1.9783626
-0.99519902 -0.42407101 1.9768429
-1.01042 -0.42421865 1.9725611
-1.0296955 -0.42603964 1.9760171
-1.027122 -0.41889769 1.9375625
-1.0467722 -0.42089301 1.9416893
-1.0627792 -0.42138827 1.9387311
-1.0650123 -0.41648358 1.9107077
-1.08665 -0.41919726 1.9178654
-1.0894337 -0.41466227 1.8915386
-1.1057218 -0.41531917 1.8890607
-1.1215332 -0.41578218 1.8856008
-1.1312909 -0.41401789 1.8718972
-1.143471 -0.41317359 1.8623461
-1.1224861 -0.40051669 1.7992218
-1.0902189 -0.3841967 1.7198352
-1.069587 -0.37232539 1.6608716
-1.0727729 -0.36893141 1.6402258
-1.0616766 -0.3607651 1.5982654
-1.0697045 -0.35921308 1.5859678
-1.0875458 -0.36095423 1.5882823
-1.1283294 -0.37018237 1.6236283
1.3647102 -0.4574343 1.9312795
1.3532196 -0.45879224 1.9439192
1.322288 -0.45351386 1.9280804
1.3206184 -0.45826557 1.9551369
1.306195 -0.45865199 1.9634174
1.2826257 -0.45579761 1.9575998
1.2666157 -0.45559272 1.9631268
1.2594935 -0.45861903 1.9826442
1.2573384 -0.46355224 2.0104976
1.2374569 -0.46199223 2.0099366
1.2308017 -0.46539339 2.0310664
1.1939167 -0.45730394 2.0015235
1.1955518 -0.4639501 2.0368686
1.1586835 -0.45563251 2.005918
1.1362942 -0.4528608 1.9993459
1.1302456 -0.45661485 2.0217359
1.0971493 -0.44939426 1.9950389
1.0904734 -0.45294461 2.0163996
1.0679855 -0.44993475 2.0082576
1.0510927 -0.44922912 2.0103524
1.0364569 -0.44948143 2.01668
1.0064003 -0.44295412 1.9922034
