# .PCD v0.7 - Point Cloud Data file format
VERSION 0.7
FIELDS x y z
SIZE 4 4 4
TYPE F F F
COUNT 1 1 1
WIDTH 1490
HEIGHT 1
VIEWPOINT 0 0 0 1 0 0 0
POINTS 1490
DATA ascii
0.62015462 0.52526683 1.9880337
0.60725498 0.52656674 1.9959489
0.58852625 0.5227524 1.984242
0.53416842 0.48631063 1.8474393
0.47158262 0.44032088 1.6735616
0.44400686 0.42546287 1.6187221
0.43010592 0.42326045 1.6123456
0.42065901 0.42544058 1.6227642
0.40780404 0.42419997 1.6199574
0.39569438 0.42368457 1.6198804
0.3816137 0.42096373 1.611219
0.36982343 0.42067853 1.6118988
0.35762683 0.41989785 1.6106006
0.34587076 0.4195998 1.6111099
0.33354077 0.41856101 1.6086863
0.32333514 0.42020905 1.6166339
0.31121778 0.41940254 1.6149954
0.29598725 0.41417783 1.596105
0.28659624 0.41703358 1.6085907
0.27397138 0.41522551 1.6028633
0.26144096 0.41341001 1.5970409
0.25152987 0.41575947 1.6074103
0.2397857 0.41515818 1.6062127
0.22847621 0.41528717 1.6078117
0.2171565 0.4154101 1.6093334
0.20509669 0.41405249 1.6050075
0.192533 0.41145897 1.5957822
0.18216598 0.41352931 1.6047645
0.17026107 0.41215158 1.600186
0.15909313 0.41248888 1.6022745
0.14737564 0.41134384 1.598496
0.13588159 0.41068444 1.5965662
0.12472045 0.41100296 1.5984219
0.11360811 0.41156155 1.6011688
0.10258604 0.41260633 1.6057749
0.091069631 0.41167542 1.6025658
0.079841629 0.41196936 1.6041172
0.068514511 0.41176441 1.6036551
0.056752764 0.40835139 1.5905238
0.045699511 0.40961143 1.5957171
0.035364371 0.42022565 1.6376563
0.024502922 0.43181983 1.6834055
0.013020103 0.44390076 1.731021
0.00083570718 0.43552911 1.6981161
-0.011272625 0.44217741 1.7242486
-0.023614751 0.44635531 1.7406048
-0.037036087 0.46111813 1.7985409
-0.049169615 0.4564141 1.7798375
-0.062974893 0.46598867 1.8172355
-0.076943405 0.47333813 1.8458132
-0.090798646 0.47797036 1.8636372
-0.10688644 0.49170455 1.917166
-0.11408209 0.46603745 1.8157862
-0.11069099 0.40664724 1.5819383
-0.11473967 0.38295549 1.4883672
-0.12529603 0.38313484 1.4885141
-0.13568571 0.38281628 1.4866575
-0.14605579 0.3824921 1.4847307
-0.15660709 0.38265416 1.4846621
-0.16791627 0.38453141 1.4912637
-0.17875488 0.38517299 1.492969
-0.18998803 0.38654569 1.4974834
-0.20027323 0.38594651 1.4942281
-0.20998587 0.38435951 1.4870641
-0.22115834 0.38546851 1.4903897
-0.23165002 0.38534394 1.4888434
-0.24166866 0.38447765 1.4843539
-0.25356719 0.38654959 1.4912715
-0.26507175 0.38787878 1.4952325
-0.27490234 0.38675046 1.4895705
-0.28611448 0.38757727 1.4914663
-0.29624206 0.38692844 1.4875726
-0.30827135 0.38872239 1.4931118
-0.35452014 0.43210474 1.6598183
-0.42363802 0.49965453 1.9197294
-0.44440502 0.50773245 1.9489424
-0.46185192 0.51164162 1.9619093
-0.47791272 0.51383013 1.9681307
-0.49688891 0.51893812 1.9855198
-0.51541191 0.52330166 1.9999241
-0.52330089 0.51692444 1.9729022
-0.54249555 0.52175683 1.9889327
-0.55154467 0.51683402 1.9674174
-0.57018024 0.52091604 1.9803807
-0.58274823 0.51939058 1.9717747
-0.59606451 0.51858896 1.9658779
-0.62105262 0.52774286 1.997897
-0.62400419 0.51818061 1.9584447
-0.61567813 0.49988732 1.8858241
-0.64026123 0.50852883 1.915629
-0.68057007 0.52902615 1.9902035
-0.67900121 0.51679462 1.9405745
-0.70436519 0.52514297 1.968786
-0.72784346 0.53177905 1.9903556
-0.73850393 0.52897358 1.9762123
-0.75381804 0.52954519 1.9747227
-0.76740068 0.52890193 1.9685916
-0.786641 0.5321095 1.9768108
-0.79696912 0.52928156 1.9623536
-0.82669753 0.53920847 1.995427
-0.83929104 0.53780669 1.986112
-0.86477411 0.54457039 2.0070651
-0.87546891 0.54194987 1.9930555
-0.89350241 0.54388404 1.9958514
-0.91122234 0.54556692 1.997609
-0.92576289 0.54532266 1.9921645
-0.93656141 0.54291695 1.978705
-0.95266694 0.5436148 1.9765799
-0.97346956 0.54693007 1.9839308
-0.99399573 0.54999197 1.9902188
-1.001105 0.54564935 1.9694365
-1.0195051 0.54749817 1.9711185
-1.0343866 0.54743111 1.9657522
-1.0697495 0.55805033 1.9988791
-1.0580852 0.54418367 1.9435751
-1.0994803 0.55761218 1.9864522
-1.120695 0.56057811 1.9915255
-1.1348453 0.55997777 1.9837265
-1.1460311 0.55795038 1.970778
-1.1629933 0.5587514 1.9678295
-1.1665428 0.55317152 1.9422017
-1.2004961 0.56196713 1.9673324
-1.2165334 0.56225944 1.9622833
-1.2268962 0.55995464 1.948041
-1.247018 0.56210577 1.949344
-1.2698551 0.56541336 1.9545485
-1.3029469 0.57315212 1.9749857
-1.3148638 0.5715028 1.9626713
-1.3190577 0.56657517 1.9390061
-1.3570614 0.57611555 1.9651144
-1.3760647 0.57746279 1.9628483
1.422556 0.57309288 1.9980201
1.4088218 0.57407832 2.0086255
1.3955595 0.5752812 2.019943
1.3751225 0.57352006 2.0206847
1.3633752 0.57538438 2.0342159
1.3392345 0.57200003 2.02895
1.292544 0.55878472 1.9882692
1.2736428 0.55740529 1.9897767
1.2785307 0.56653273 2.0290875
1.2380207 0.55552018 1.9956142
1.2439562 0.56533325 2.0374343
1.2269299 0.56483036 2.0418146
1.1990694 0.55926102 2.0275922
1.1661215 0.55113888 2.0038135
1.1696289 0.56025976 2.0431352
1.1318138 0.54956549 2.0095525
1.131567 0.55706954 2.0429068
1.1082358 0.55326039 2.0344148
1.0828023 0.54827785 2.0214043
1.0769886 0.55322945 2.0452147
1.0531157 0.5489136 2.0344298
1.0281379 0.54388452 2.0208092
1.0150813 0.54510504 2.0304675
1.0040754 0.54748118 2.0444138
0.98452753 0.54520118 2.040761
0.96674085 0.54383969 2.0404568
0.93841285 0.53640878 2.0170496
0.93736303 0.54458237 2.0526922
0.91175503 0.5385229 2.0342207
0.89423686 0.53711742 2.0333185
0.8844347 0.54037791 2.0501478
0.86917478 0.54035962 2.0543892
0.84279907 0.53330684 2.0315497
0.8116973 0.52295303 1.9958254
0.80473763 0.52805793 2.0194349
0.79116964 0.52893728 2.0267274
0.77650857 0.52910554 2.0312037
0.76047343 0.5283258 2.0319304
0.75542766 0.5353021 2.0626774
0.73566324 0.53192037 2.0531602
0.71064526 0.52452046 2.0278664
0.69321573 0.52252597 2.0234907
0.67435354 0.51934159 2.0143619
0.65895522 0.51874268 2.0152388
0.63506985 0.51128387 1.9891375
0.62249035 0.51279217 1.9980823
0.60477018 0.51003683 1.9902049
0.58143908 0.50229996 1.9626061
0.52856606 0.46801916 1.8301761
0.46426439 0.42160484 1.649397
0.44576904 0.41544223 1.6272204
0.4288471 0.41045311 1.6095669
0.41629761 0.4094882 1.6077577
0.40755185 0.41231659 1.6209351
0.39316738 0.40943879 1.6114093
0.37871531 0.40631449 1.600819
0.36808637 0.40722498 1.6062115
0.35740173 0.4081305 1.6115351
0.34302974 0.40474549 1.5996888
0.33430567 0.40802085 1.6143631
0.32049286 0.40509757 1.6042234
0.31029433 0.40669537 1.6120988
0.29842517 0.4061422 1.6113145
0.28641409 0.40534395 1.6094887
0.27347216 0.40310732 1.6018317
0.26204848 0.4030118 1.6027025
0.2506265 0.40291029 1.603494
0.23949046 0.40328059 1.606128
0.22670801 0.40077734 1.5971477
0.21714637 0.40400392 1.6111695
0.20386896 0.40029174 1.5972003
0.19344375 0.40207291 1.6053029
0.1819405 0.4016957 1.6046553
0.17055753 0.40155157 1.6048932
0.1591803 0.40140137 1.6050528
0.14807382 0.40196326 1.6080347
0.13595617 0.39964586 1.5993321
0.12486368 0.40019548 1.602158
0.1134666 0.39978111 1.6010349
0.10233624 0.40031871 1.6037086
0.091119744 0.40061083 1.605338
0.080124326 0.40209502 1.6117395
0.06810125 0.39806142 1.5957578
0.056955285 0.39857477 1.5981251
0.047924332 0.41777787 1.6761124
0.03627573 0.41923892 1.682223
0.025187731 0.43172038 1.7329086
0.01294053 0.4290939 1.7223601
0.00086218014 0.43700844 1.7544452
-0.011391943 0.43460834 1.7447007
-0.024045043 0.44202992 1.7746747
-0.037650365 0.45591626 1.8307654
-0.050497662 0.45589226 1.8304647
-0.064208515 0.46209288 1.8553034
-0.076384962 0.45702162 1.8344501
-0.090286985 0.46224847 1.8552189
-0.095752694 0.42841178 1.7178741
-0.095995031 0.38140017 1.5272545
-0.10431588 0.37272179 1.4916941
-0.1151716 0.37385988 1.4957867
-0.12512322 0.37211838 1.4881916
-0.13619637 0.37372372 1.4940708
-0.14669968 0.37364715 1.4931052
-0.15669283 0.37236848 1.4872394
-0.16693388 0.37180254 1.4842041
-0.178396 0.37386239 1.4917067
-0.18924581 0.37448081 1.4933432
-0.19872423 0.37246358 1.4843146
-0.21023448 0.37426591 1.4906154
-0.22156049 0.37558371 1.4949086
-0.23310448 0.37713394 1.5000778
-0.24272557 0.37557364 1.4926972
-0.25273868 0.37472498 1.4881306
-0.26404169 0.37578014 1.4911512
-0.27557379 0.37706745 1.4950436
-0.28464022 0.37501064 1.4854918
-0.29621407 0.37628627 1.4892285
-0.30863139 0.37850824 1.4966844
-0.32277456 0.38262752 1.5116434
-0.38506794 0.44171393 1.7456644
-0.4425022 0.49169993 1.9428931
-0.46033338 0.49598023 1.9577934
-0.4747588 0.49644688 1.9574317
-0.48826775 0.49595588 1.953195
-0.50823349 0.50186825 1.9742793
-0.51666385 0.49637783 1.950085
-0.52655816 0.49254632 1.9324353
-0.54611564 0.4977186 1.9503144
-0.57101512 0.50737834 1.9857677
-0.58524084 0.50731367 1.9827429
-0.59749734 0.50558567 1.9731041
-0.61594427 0.5090543 1.9838212
-0.60180503 0.48604703 1.8906003
-0.61360949 0.48455077 1.8818079
-0.62746149 0.48470142 1.8794016
-0.67500025 0.51031351 1.9762955
-0.69049907 0.51113933 1.9762096
-0.70635748 0.51219219 1.976921
-0.71994483 0.51158905 1.9711124
-0.73821449 0.51427156 1.9779721
-0.76280928 0.52117223 2.0010388
-0.77235425 0.51772398 1.9839637
-0.79418314 0.52248514 1.9985045
-0.80827236 0.52207363 1.9929985
-0.81088054 0.51439369 1.9595146
-0.83822536 0.52240014 1.9861745
-0.86178732 0.52781314 2.0027144
-0.86156452 0.51872241 1.9637496
-0.88331968 0.52294648 1.9755477
-0.90368456 0.52622241 1.9835947
-0.92176944 0.52808625 1.9861547
-0.93993914 0.5299387 1.9885598
-0.95148581 0.52805758 1.9767671
-0.97184944 0.53105217 1.9832788
-0.98243231 0.52869254 1.9695532
-1.0068774 0.5337519 1.9835767
-1.0289104 0.53740239 1.9921612
-1.0511183 0.54103696 2.0005362
-1.0461489 0.53077883 1.9571292
-1.0858897 0.54317451 1.9978076
-1.0967807 0.54099518 1.984283
-1.1241263 0.54688066 2.0004487
-1.1311222 0.54284084 1.9799281
-1.1471202 0.54317135 1.9754292
-1.1744262 0.54877704 1.9901201
-1.1885611 0.54816264 1.9819443
-1.2066715 0.54937392 1.9803325
-1.2202358 0.54851097 1.9711007
-1.2394017 0.55015612 1.9708619
-1.2565429 0.55087286 1.9671638
-1.2868704 0.55728257 1.983791
-1.2839336 0.54930633 1.9487479
-1.2999543 0.54953384 1.9430501
-1.3039867 0.54474795 1.9194603
-1.3500967 0.5574472 1.9577997
-1.3740337 0.56080437 1.9627957
1.385069 0.54226393 1.947736
1.3928639 0.55157858 1.9885198
1.3863746 0.55538756 2.009388
1.3823869 0.56029987 2.034306
1.3651665 0.55990183 2.0397713
1.346872 0.55904841 2.0434663
1.3169781 0.55330092 2.0289738
1.2816141 0.54508519 2.0051107
1.2461401 0.53661686 1.9800313
1.2539761 0.54682064 2.0243225
1.2521664 0.55302548 2.0538034
1.2215739 0.54651451 2.0356195
1.1898258 0.53930849 2.0145895
1.1696393 0.53722084 2.0126388
1.1625302 0.54116434 2.0333934
1.1428404 0.53927934 2.0320203
1.1072863 0.52975214 2.0014296
1.1097251 0.53838927 2.0398996
1.0783259 0.53062195 2.015672
1.0581481 0.5282315 2.0118401
1.04342 0.52853125 2.018229
1.0194466 0.52408707 2.0062423
1.0104047 0.52730066 2.023701
0.9849692 0.52192622 2.0078473
0.96779567 0.52083027 2.0084372
0.96847153 0.52945781 2.0467975
0.94011062 0.52223325 2.0233471
0.93623012 0.52859372 2.0528417
0.89521307 0.51384968 1.9996058
0.88106805 0.514292 2.0057185
0.88028705 0.52268469 2.0430694
0.86170536 0.52061683 2.0391965
0.83989269 0.51648837 2.0270605
0.82266456 0.51508039 2.0255592
0.80371451 0.51252228 2.0193906
0.78840876 0.51223552 2.0221384
0.77690244 0.51445365 2.0347865
0.74629927 0.50386536 1.9962591
0.75016391 0.51658982 2.0507445
0.71746564 0.50414145 2.0044737
0.70238328 0.50381064 2.0065875
0.68605787 0.50255525 2.0049038
0.67347163 0.504044 2.0141773
0.64458787 0.49313053 1.9733766
0.64273554 0.50287098 2.01579
0.61735374 0.49422705 1.9838783
0.60760659 0.49798614 2.0020363
0.58201218 0.48862386 1.9669313
0.55479842 0.47740087 1.9240884
0.4877421 0.43044147 1.7356716
0.4447265 0.40278885 1.6253282
0.43278921 0.4025512 1.6264498
0.41892782 0.40046114 1.6199456
0.40353534 0.39674652 1.6067206
0.39268675 0.39741242 1.6113329
0.37957761 0.39576164 1.6064007
0.37042943 0.39826655 1.6184449
0.35571182 0.39475203 1.605734
0.34482422 0.39539543 1.6100298
0.33389497 0.3960337 1.6142536
0.32235864 0.39597175 1.6155421
0.3110033 0.39613575 1.6177058
0.29805619 0.39420709 1.6111801
0.28470966 0.39157525 1.6016817
0.27345443 0.39172041 1.6035879
0.26311889 0.39325273 1.6111782
0.25031319 0.39106479 1.6033239
0.23975928 0.39235407 1.6098061
0.22831611 0.39224419 1.6104414
0.21610469 0.39073363 1.6052132
0.20409922 0.38944891 1.6008604
0.19204991 0.38792512 1.5954553
0.18030272 0.38685992 1.5918956
0.17024173 0.38951135 1.6037277
0.15945522 0.39076167 1.6096908
0.14753526 0.38921323 1.603961
0.13611038 0.38882247 1.6029916
0.12403335 0.38632977 1.5932163
0.1129832 0.38685811 1.5959648
0.10171707 0.38668194 1.5957271
0.09116862 0.38952848 1.6080347
0.079594024 0.38817573 1.6027904
0.070599146 0.40103117 1.6567336
0.05986429 0.40712452 1.6824441
0.048060112 0.40715313 1.6828125
0.037187554 0.41766363 1.7268506
0.025075329 0.41768014 1.7270632
0.013106617 0.42235196 1.7466416
0.0008777859 0.43237847 1.7885048
-0.01201418 0.44542852 1.8429247
-0.024840765 0.44378713 1.835992
-0.037472535 0.44097364 1.8241112
-0.050790425 0.4456116 1.843254
-0.064709485 0.45257252 1.8720198
-0.073139705 0.42527094 1.7578515
-0.078440562 0.39027855 1.6116078
-0.08326593 0.36204401 1.4935422
-0.093572922 0.36129835 1.4900262
-0.10343269 0.35914996 1.4806205
-0.11419977 0.36025691 1.4847274
-0.12486792 0.36089233 1.4868197
-0.13583267 0.36222044 1.4917434
-0.14555565 0.36028418 1.4830368
-0.15657489 0.36160097 1.4878116
-0.16691534 0.36128321 1.4857404
-0.1774632 0.36142537 1.4855312
-0.18862095 0.36272454 1.4900743
-0.19882977 0.36215803 1.4868224
-0.20886846 0.36135399 1.4825393
-0.22111385 0.36426207 1.4935883
-0.23056914 0.36251819 1.4853129
-0.2410012 0.36239523 1.4837028
-0.25238889 0.36365938 1.487777
-0.26384535 0.36491728 1.4917662
-0.27467242 0.36524126 1.4918419
-0.28497082 0.36486426 1.488974
-0.29636946 0.3658725 1.4917639
-0.30704409 0.36594817 1.4906563
-0.31932613 0.36787054 1.4970891
-0.33358154 0.37186849 1.5119789
-0.40567788 0.43807623 1.7820288
-0.45483246 0.47624123 1.936502
-0.47068527 0.47831506 1.9428055
-0.48992497 0.48361331 1.9622065
-0.49863476 0.47851178 1.93901
-0.51495433 0.48079142 1.9459049
-0.53012758 0.48190886 1.9479716
-0.54327512 0.48117462 1.942422
-0.55370593 0.47813123 1.9274269
-0.57871091 0.48751414 1.962818
-0.60060155 0.4938885 1.9858397
-0.60795933 0.48829341 1.9602846
-0.59450275 0.46661636 1.8697517
-0.60734129 0.46608344 1.864707
-0.62839323 0.47173959 1.8845261
-0.67253584 0.4941197 1.9714482
-0.68862128 0.4953821 1.9732279
-0.70184314 0.49457499 1.9666222
-0.71732885 0.49536356 1.9663365
-0.73284823 0.49614394 1.9659315
-0.74874443 0.49714446 1.9663177
-0.76223236 0.49653834 1.9602206
-0.78495204 0.50185698 1.9775851
-0.80141908 0.50305718 1.9784681
-0.82200456 0.50675339 1.9891282
-0.83827358 0.50770551 1.9888192
-0.85458255 0.50864851 1.9883801
-0.86432976 0.5057202 1.9726285
-0.87232447 0.50188136 1.953276
-0.88971341 0.50348467 1.9552121
-0.92956102 0.51754022 2.0056703
-0.94206679 0.51616824 1.995689
-0.95909613 0.51727885 1.995303
-0.96893674 0.51453781 1.9798799
-0.98422432 0.51472861 1.9757695
-0.99863106 0.51445991 1.9698021
-1.0209973 0.5182392 1.979341
-1.0534513 0.52695495 2.0076768
-1.067659 0.52642488 2.0003536
-1.0845931 0.52723491 1.998077
-1.0982751 0.52646363 1.9896795
-1.1280183 0.5333069 2.0101368
-1.1470642 0.53497601 2.0107701
-1.1515956 0.52992153 1.9858927
-1.159282 0.52643281 1.9669397
-1.190665 0.5336557 1.9881991
-1.2032608 0.53238082 1.9774064
-1.2254525 0.53533012 1.9823246
-1.2333391 0.5320347 1.9638619
-1.2702297 0.54117781 1.9915227
-1.2801571 0.53875041 1.9761145
-1.2856683 0.53454536 1.9541335
-1.2941676 0.53166807 1.9370506
-1.3166491 0.53453505 1.9409823
-1.3662124 0.5482021 1.9841566
-1.3875438 0.55035681 1.985061
1.3992833 0.53194064 1.9706045
1.3885635 0.53392804 1.9850651
1.3981078 0.54384398 2.0293064
1.3667217 0.53788471 2.0138304
1.3572208 0.54049903 2.0305738
1.3123015 0.52890164 1.9933251
1.3239815 0.54011095 2.0426059
1.2691954 0.52414787 1.9882098
1.2860332 0.53773439 2.0466576
1.2714609 0.53836501 2.0555108
1.2204742 0.52339548 2.0041018
1.2022202 0.52225685 2.0057867
1.1844999 0.5213232 2.0081577
1.1833739 0.52776557 2.0391393
1.1602188 0.52442455 2.0319865
1.135802 0.52041405 2.0220549
1.1266022 0.52336127 2.039268
1.0954506 0.51605022 2.0160785
1.0738289 0.51308399 2.0098007
1.0785165 0.52278465 2.0535078
1.0466031 0.51476824 2.0270348
1.0243365 0.51132828 2.0185208
1.0134975 0.51357502 2.0325322
0.9901455 0.50945252 2.0210459
0.98046356 0.51234466 2.0375047
0.97391808 0.51699346 2.0609918
0.93567526 0.50469488 2.0162601
0.92222339 0.50558442 2.0244317
0.90277338 0.50316054 2.0191402
0.88500476 0.50160766 2.0172548
0.86003268 0.49584806 1.9981796
0.84215814 0.49405041 1.9950498
0.82919037 0.49511859 2.0034969
0.81906331 0.49795246 2.0190976
0.80446815 0.49812463 2.0237682
0.78879726 0.49762458 2.0256059
0.77245343 0.49667263 2.0255008
0.7592026 0.49771106 2.0334964
0.74322206 0.49696583 2.0340736
0.71782064 0.48976234 2.0078824
0.70400947 0.49033156 2.0136774
0.69078201 0.49134019 2.021225
0.67871326 0.49323469 2.0323884
0.66172165 0.49155635 2.0286434
0.64452446 0.4896456 2.0238333
0.62599289 0.48660886 2.0142272
0.60369813 0.48043302 1.9913968
0.59217739 0.48273927 2.0038993
0.56685811 0.47363141 1.9685442
0.52168608 0.44704506 1.8597008
0.45310009 0.39847106 1.6581476
0.43325517 0.39129713 1.6301067
0.41938058 0.38926709 1.6235896
0.40491411 0.38655621 1.6141237
0.39357066 0.38675514 1.6168537
0.37932619 0.38402912 1.6071699
0.36781943 0.38399115 1.6087737
0.3592304 0.3870948 1.6236227
0.34520173 0.38434833 1.6136466
0.33269763 0.38316888 1.610239
0.3204473 0.38220793 1.6076941
0.30824909 0.38124055 1.6050587
0.29698092 0.38139328 1.607126
0.2858682 0.38176581 1.6100752
0.27391902 0.38100582 1.6081463
0.26232183 0.38069075 1.608055
0.25044209 0.37991858 1.6059562
0.23917277 0.38004297 1.6076277
0.22762203 0.37971035 1.607293
0.21557331 0.37846857 1.6030147
0.20396103 0.37789795 1.6015482
0.19330139 0.37912899 1.6077387
0.18180646 0.37877294 1.6070837
0.17073715 0.37931523 1.6102238
0.15801778 0.37600824 1.5968087
0.14725888 0.37721717 1.6026994
0.13634434 0.37819466 1.6075487
0.12409798 0.37532079 1.5958153
0.11290599 0.37538171 1.596624
0.10183145 0.37588951 1.5993005
0.091980003 0.3815974 1.6242704
0.084224455 0.39884517 1.6987975
0.073385961 0.40477148 1.7246342
0.060547009 0.3998253 1.703678
0.049654152 0.40845737 1.7410492
0.038390495 0.41866913 1.7851672
0.025718469 0.41596854 1.7736999
0.013193085 0.41280833 1.7601968
0.00088866119 0.42504007 1.812842
-0.012058208 0.43409505 1.8517649
-0.025036506 0.43431187 1.8526123
-0.03874056 0.44267359 1.8884287
-0.049062852 0.41797045 1.7819895
-0.058108974 0.39462236 1.6813457
-0.063193657 0.35678303 1.5183823
-0.072343588 0.34950411 1.4867815
-0.082719706 0.34923777 1.4852796
-0.093199223 0.34941879 1.4856516
-0.10368797 0.34959447 1.4859519
-0.11433314 0.35021716 1.4881223
-0.12485236 0.35038197 1.4882773
-0.135554 0.35099369 1.4903001
-0.14591356 0.35069534 1.4883696
-0.15574893 0.34926149 1.4815246
-0.16700196 0.3509872 1.4881715
-0.17744091 0.3508991 1.4869959
-0.18823473 0.35148352 1.488649
-0.19880493 0.35161063 1.488294
-0.20911074 0.35128087 1.4859363
-0.21995807 0.35184884 1.4873646
-0.23098348 0.35263687 1.4896791
-0.24158856 0.35274252 1.489028
-0.2531631 0.35419559 1.4940683
-0.26381287 0.35429022 1.4932634
-0.27411523 0.35392898 1.4904673
-0.28439203 0.35356274 1.4876018
-0.29539409 0.35409215 1.4884917
-0.30622846 0.35439092 1.4883472
-0.31747803 0.35513416 1.4900329
-0.32959738 0.35677081 1.4954438
-0.34845144 0.36536658 1.5302277
-0.43694878 0.44424677 1.8618865
-0.47479093 0.468494 1.9621381
-0.48314983 0.46309355 1.9370872
-0.50273675 0.46845606 1.9573457
-0.51743859 0.46909952 1.9576311
-0.53014034 0.46794358 1.9502809
-0.54693186 0.47036424 1.9578775
-0.56172192 0.4709855 1.9578372
-0.57572007 0.47092861 1.9548814
-0.59166551 0.47242936 1.9583623
-0.60339415 0.47057158 1.947742
-0.58923441 0.44906831 1.8552374
-0.6067453 0.45212185 1.8650719
-0.64949918 0.47344288 1.9506565
-0.67224503 0.47958162 1.9729403
-0.69501716 0.48548248 1.9940821
-0.69861442 0.47802192 1.9598553
-0.71370548 0.47856721 1.9586836
-0.73118269 0.48065969 1.9638001
-0.74601543 0.48096663 1.9614713
-0.77067232 0.48747614 1.9845086
-0.78640944 0.48820671 1.9837056
-0.80471981 0.49047917 1.9891151
-0.8139075 0.48720947 1.9718053
-0.82665598 0.48614866 1.9634632
-0.84200716 0.48662871 1.9613208
-0.86902732 0.49372199 1.9858991
-0.89091039 0.49770868 1.9977103
-0.90258026 0.49595255 1.9861947
-0.90925068 0.49155039 1.9639763
-0.93880874 0.49946478 1.9912423
-0.96208435 0.50384146 2.0041013
-0.96558082 0.49788457 1.9754761
-0.98341233 0.49938795 1.9766442
-0.99912202 0.49978495 1.9733007
-1.0290499 0.50717789 1.9976364
-1.0517188 0.51083052 2.0069342
-1.0544963 0.50485545 1.9780591
-1.0629355 0.50172114 1.9604148
-1.1030331 0.51340955 2.0009716
-1.1096005 0.50938469 1.9796524
-1.1221721 0.50818789 1.9693848
-1.1127725 0.49720576 1.9209542
-1.1495197 0.50686055 1.9528279
-1.1713289 0.5097633 1.9582592
-1.2053736 0.51784825 1.9835467
-1.2209651 0.51790088 1.9776524
-1.2447907 0.52140117 1.9849018
-1.2609557 0.52164584 1.9795351
-1.285022 0.5251134 1.9863666
-1.2911174 0.5212422 1.9651462
-1.3056046 0.52081066 1.9569683
-1.3276691 0.52337646 1.9600341
-1.3316764 0.51884711 1.9362652
-1.3587753 0.52331531 1.9462622
1.390973 0.51298743 1.9614357
1.4204589 0.52987838 2.0337284
1.3723233 0.51786995 1.9942476
1.3821338 0.52770317 2.0394137
1.3487054 0.52106524 2.0204029
1.3134788 0.51356441 1.9977535
1.3018994 0.51523942 2.0109155
1.2902023 0.51690853 2.0240138
1.2478882 0.50619966 1.9880804
1.2357911 0.50763243 2.0000043
1.215508 0.50569618 1.9984635
1.2092918 0.50963801 2.0202734
1.1870444 0.50683856 2.0150867
1.1815065 0.51119399 2.0384986
1.1636652 0.51027197 2.040663
1.1411017 0.50722575 2.0341387
1.1215088 0.50543374 2.0325444
1.0987555 0.5021469 2.0247536
1.0889778 0.50478101 2.0409279
1.0614314 0.49913564 2.0232592
1.0399795 0.49623239 2.0166168
1.0283378 0.49799338 2.0289795
1.0040228 0.49357751 2.0158756
1.0038483 0.50107574 2.0517516
0.97420049 0.49386662 2.0268745
0.96360624 0.49624118 2.0414989
0.93693757 0.4902809 2.0214598
0.92266273 0.49071705 2.0278609
0.90914047 0.49157462 2.0359476
0.88932204 0.48899919 2.0296123
0.87385732 0.48877025 2.032984
0.86065519 0.48982099 2.0416458
0.83699983 0.48485392 2.0249214
0.8318429 0.49061668 2.0532761
0.80592698 0.4841226 2.029865
0.79022974 0.48363793 2.0317054
0.77247816 0.48185316 2.0279465
0.75956661 0.48307663 2.0368614
0.73559779 0.47717628 2.015399
0.71979624 0.47644147 2.0157933
0.70434821 0.47591493 2.0169895
0.68923497 0.47559708 2.0189948
0.67167646 0.47354141 2.0134742
0.65753561 0.47385755 2.0180275
0.63396156 0.46723565 1.9926916
0.61537409 0.46406668 1.9820577
0.60455292 0.46674311 1.996507
0.58752578 0.46464178 1.9902927
0.56472296 0.45775405 1.96329
0.55069023 0.45780444 1.966166
0.49715003 0.42415121 1.8228976
0.4292466 0.37609741 1.6166964
0.41692737 0.37543118 1.6158105
0.40581825 0.37584767 1.6195697
0.39353558 0.37516984 1.6185099
0.3797349 0.37296012 1.6107067
0.37080014 0.3755407 1.6237338
0.35398129 0.37004548 1.6014426
0.34456417 0.37217981 1.6124152
0.33168986 0.37059814 1.607082
0.32173926 0.37228686 1.6160111
0.31149915 0.37375301 1.623922
0.29747981 0.37062314 1.6116123
0.28499779 0.36923531 1.6068779
0.27356938 0.36915392 1.6078235
0.26229754 0.36928591 1.609653
0.25175792 0.37050742 1.616227
0.23929273 0.36887658 1.6101844
0.22841328 0.36964947 1.6146781
0.2158104 0.36756805 1.6065274
0.20516151 0.36876851 1.6128023
0.19224627 0.36579728 1.6006004
0.1811385 0.36610949 1.6028441
0.16960178 0.3655386 1.6011312
0.15771741 0.36408404 1.5954533
0.14733343 0.36613545 1.6052362
0.13641341 0.36708441 1.610092
0.12446026 0.36517343 1.6022298
0.11316757 0.36501321 1.6020678
0.10488874 0.3756105 1.6495368
0.095847517 0.38576558 1.6950191
0.084506385 0.3882274 1.706351
0.074367762 0.39793503 1.7497735
0.060886528 0.39005819 1.7151411
0.049789567 0.39733803 1.7476958
0.038389266 0.40615109 1.7870071
0.026039723 0.40858489 1.7979563
0.01347495 0.4090344 1.8000422
0.00088153465 0.40903798 1.800091
-0.011705626 0.40881547 1.7990785
-0.025049258 0.42155415 1.8555324
-0.036797483 0.40791193 1.7948455
-0.04374294 0.36151919 1.5887867
-0.051600862 0.33995861 1.4929017
-0.061982136 0.33949068 1.4905646
-0.072567888 0.34011614 1.4930294
-0.082815371 0.33919841 1.4886019
-0.093306944 0.33937395 1.4889748
-0.10387488 0.33976394 1.4902492
-0.11446503 0.3401486 1.4914502
-0.12467366 0.33943009 1.4877166
-0.13527307 0.33980426 1.4887735
-0.14608148 0.34061208 1.491699
-0.15653364 0.34053671 1.4906664
-0.16773179 0.34199175 1.4963502
-0.17764466 0.34080914 1.4903247
-0.18796644 0.34049916 1.4881085
-0.19801067 0.33974573 1.483888
-0.20894684 0.34052154 1.4863663
-0.2202096 0.34172997 1.4906973
-0.22962062 0.34008563 1.4824067
-0.24170941 0.34237778 1.4914011
-0.252161 0.34225613 1.4897151
-0.2617617 0.34103572 1.4831514
-0.27407715 0.34330991 1.4918889
-0.2848959 0.34361008 1.4918989
-0.2959165 0.34412345 1.49279
-0.30579671 0.34332108 1.4878641
-0.31683052 0.34382412 1.4886041
-0.32955241 0.34606737 1.4968923
-0.34261996 0.34852168 1.5060296
-0.38036355 0.37516582 1.6205752
-0.46296096 0.4431763 1.9149932
-0.48877352 0.45449084 1.9619989
-0.4993715 0.45142186 1.9463143
-0.51150817 0.44987231 1.9371876
-0.52582902 0.45027494 1.9364702
-0.53938526 0.45001885 1.9328269
-0.55665576 0.45279694 1.9422348
-0.55986315 0.44427943 1.9027706
-0.59195274 0.45854107 1.9615493
-0.60597879 0.45847172 1.958383
-0.58688253 0.43391639 1.8498865
-0.60554105 0.43774706 1.8634775
-0.65531945 0.46341774 1.9705418
-0.67069465 0.46418417 1.9706289
-0.67877287 0.45997384 1.9493729
-0.70025122 0.46483061 1.9667679
-0.71537477 0.46535894 1.9655918
-0.73187149 0.46674234 1.967966
-0.74465072 0.4657473 1.9601552
-0.7689364 0.47185066 1.982338
-0.78892839 0.47514173 1.992463
-0.78583992 0.46466559 1.9443921
-0.80726981 0.46880257 1.9579291
-0.82328933 0.46970737 1.9577422
-0.85617477 0.48003727 1.9969741
-0.85467243 0.47106338 1.9551926
-0.87988222 0.47686598 1.9751753
-0.88535923 0.47195911 1.9503677
-0.91538721 0.48008683 1.9797421
-0.92891634 0.47944072 1.972505
-0.94449252 0.47985485 1.969587
-0.9617815 0.48111299 1.9700646
-0.98517746 0.48534155 1.9826663
-1.0000368 0.48530108 1.977571
-1.0073239 0.48164111 1.9575695
-1.0418612 0.49092782 1.9904627
-1.0600221 0.49234265 1.9909986
-1.0810219 0.49501753 1.996544
-1.1049675 0.49894819 2.0070398
-1.1082344 0.49356174 1.9797034
-1.0967582 0.4818438 1.9268852
-1.1410434 0.49460953 1.9726661
-1.139238 0.48732328 1.9377056
-1.1873471 0.50130033 1.9878048
-1.2054526 0.50241369 1.9862403
-1.2205367 0.50225562 1.9795165
-1.2319765 0.50062048 1.9668669
-1.2537405 0.50316936 1.9706913
-1.2814276 0.50800401 1.9833642
-1.2901492 0.50529414 1.9662452
-1.3003131 0.50320709 1.9515492
-1.3174218 0.50382507 1.9473654
-1.3262758 0.5013085 1.9309161
-1.3683523 0.51126301 1.9627057
1.4333192 0.51232988 2.0242417
1.4049728 0.50796539 2.0139897
1.391191 0.50882655 2.0244834
1.35931 0.50301027 2.0080571
1.3347569 0.49979958 2.0019064
1.3402988 0.50791633 2.0414591
1.311506 0.50306094 2.02844
1.2803509 0.49716851 2.0109832
1.2650256 0.49735242 2.0181355
1.2394397 0.49345601 2.0084741
1.2337682 0.49748978 2.031256
1.2163517 0.49683088 2.0346909
1.197471 0.49554873 2.0354464
1.1835203 0.4962998 2.0445261
1.1540917 0.49049297 2.0262425
1.1449622 0.49327233 2.0435789
1.108879 0.48435575 2.0119402
1.0960199 0.485475 2.0221357
1.0606555 0.47651544 1.9898599
1.0537959 0.48028812 2.0110238
1.0435786 0.48261875 2.0260878
1.0279348 0.48247194 2.0306134
1.0166153 0.48438102 2.0437934
1.0017503 0.48463348 2.0498707
0.98559225 0.48425859 2.0531902
0.97441751 0.48635906 2.0670183
0.93410289 0.47374842 2.0176725
0.92027354 0.47437716 2.0249448
0.9000572 0.47167975 2.0178103
0.88583601 0.47208601 2.0239525
0.87541187 0.47456464 2.0389934
0.84144115 0.46414182 1.9980322
0.83738744 0.47014377 2.0282025
0.82347971 0.47073078 2.0348134
0.80271876 0.46734953 2.0240383
0.78707814 0.46687818 2.0258501
0.77318263 0.4674437 2.0321178
0.75958073 0.46821237 2.0392079
0.7309497 0.4595626 2.0048285
0.71850038 0.46094143 2.0144014
0.70691621 0.46294415 2.0266707
0.69363189 0.46389493 2.034245
0.67076302 0.45833781 2.0129561
0.65694243 0.45885399 2.0184331
0.6416105 0.45831409 2.0191536
0.61997688 0.45314309 1.9992028
0.60933471 0.45595104 2.0146358
0.58670479 0.44970706 1.9896711
0.57437068 0.45124009 1.9992787
0.55801105 0.44960812 1.9946824
0.52772361 0.43637353 1.9380549
0.45329514 0.38494018 1.7099899
0.41543314 0.36256823 1.611709
0.40577641 0.36423847 1.6211514
0.39143699 0.36168003 1.6115322
0.38213694 0.3637639 1.6227354
0.36753082 0.3607693 1.6110077
0.35916272 0.36390224 1.6268476
0.3445276 0.36068273 1.6139631
0.33341396 0.36105511 1.6172357
0.32094985 0.35993955 1.6137209
0.30946264 0.35987756 1.6149144
0.29709694 0.35875002 1.6112207
0.28581154 0.35888904 1.6132112
0.27337763 0.35753757 1.6083784
0.26149166 0.35681656 1.6063473
0.24934973 0.35566518 1.6022996
0.24054669 0.35939303 1.6203988
0.22730564 0.35653126 1.608454
0.21540086 0.35557523 1.605124
0.20404151 0.35546365 1.6055862
0.19222514 0.35449609 1.602089
0.18111873 0.35479891 1.6043338
0.16948134 0.35403273 1.6016444
0.15865096 0.35496324 1.6066526
0.14678729 0.35354742 1.6008854
0.1355827 0.35361588 1.601849
0.12519549 0.35602123 1.6134521
0.11955898 0.37375546 1.6951663
0.10985001 0.38126564 1.7300712
0.09764237 0.38089004 1.7288283
0.085840046 0.38221291 1.7353085
0.074404523 0.38587397 1.7524478
0.062152132 0.38590723 1.7529137
0.051136702 0.39552432 1.7972449
0.039156474 0.40151346 1.8249015
0.026150711 0.39769316 1.8075405
0.013727924 0.40388364 1.8360088
0.00091135432 0.40985495 1.8634152
-0.012171064 0.41198355 1.8731472
-0.02325847 0.37936601 1.7235483
-0.031162424 0.33480984 1.5191919
-0.041077513 0.32903817 1.4925729
-0.051593013 0.32944176 1.4942099
-0.062133189 0.32984027 1.4957746
-0.072275415 0.32831603 1.4884834
-0.082641616 0.32806534 1.4869791
-0.093473844 0.32951364 1.4932063
-0.10385893 0.32925269 1.491558
-0.11422569 0.32898673 1.4898392
-0.1246544 0.32892877 1.4890242
-0.13516477 0.32907867 1.4891111
-0.14577658 0.32943627 1.4900981
-0.15600504 0.32893765 1.487124
-0.16662998 0.32928512 1.4879661
-0.17693111 0.32898948 1.4858229
-0.18733184 0.32890165 1.4845799
-0.19785181 0.32902142 1.4842343
-0.20958695 0.33104855 1.4925271
-0.21932831 0.32988322 1.4862261
-0.2298803 0.32998779 1.4856592
-0.24120843 0.33114883 1.4898438
-0.25163814 0.33103088 1.4881613
-0.26407236 0.33345363 1.4979599
-0.27281255 0.33120477 1.4865057
-0.28430828 0.33234406 1.490369
-0.29511937 0.3326301 1.4903097
-0.30672246 0.33375815 1.4940046
-0.31718412 0.33361033 1.4918737
-0.3270081 0.33282298 1.486806
-0.33785045 0.33308902 1.4864434
-0.35202119 0.33652076 1.5002842
-0.40875709 0.37924176 1.6908001
-0.47611952 0.42909375 1.9128668
-0.50274068 0.44047531 1.961669
-0.51397824 0.43812719 1.948728
-0.53090483 0.44062451 1.9574381
-0.54797888 0.44311267 1.9660084
-0.56386381 0.4445388 1.9697357
-0.57763994 0.44427332 1.9658306
-0.58886993 0.4421089 1.9534006
-0.60454381 0.443304 1.9558657
-0.58833075 0.42159468 1.8565437
-0.63968182 0.44819018 1.9715971
-0.65746272 0.45061895 1.9792398
-0.66944569 0.44905502 1.9691293
-0.68515033 0.4500007 1.9700398
-0.69992709 0.45031077 1.9680625
-0.7143808 0.45040476 1.9650556
-0.72916812 0.45070124 1.9628612
-0.74706441 0.45287094 1.9687942
-0.76578379 0.45544827 1.9763994
-0.77535933 0.45259249 1.9601705
-0.79638624 0.45640346 1.9729571
-0.80209422 0.45145589 1.9475204
-0.82668066 0.45712119 1.9681444
-0.84279835 0.45798886 1.9678159
-0.85856724 0.45864072 1.9664617
-0.87199169 0.45803943 1.9596137
-0.89780855 0.46386045 1.9803308
-0.91784793 0.46655667 1.9874438
-0.91403568 0.45723572 1.9429551
-0.94912851 0.4673638 1.9816793
-0.96904421 0.46982157 1.9874221
-0.99211729 0.47371235 1.9991285
-0.99392283 0.46748388 1.9677453
-1.0055672 0.4659982 1.9564834
-1.0445968 0.47706237 1.9981424
-1.0605134 0.47740546 1.994346
-1.0657886 0.47301599 1.9705905
-1.0881341 0.47621942 1.9786462
-1.0968785 0.47346419 1.9616655
-1.1169832 0.47562063 1.9651207
-1.1352466 0.47694609 1.964994
-1.1629301 0.48214203 1.9807793
-1.1889 0.48650169 1.992905
-1.205513 0.4869698 1.9888252
-1.2211102 0.48702082 1.9829403
-1.2428838 0.48950315 1.9869176
-1.2600766 0.49014226 1.9832336
-1.2677773 0.48711872 1.9645637
-1.2891598 0.48936152 1.9672289
-1.3009318 0.48794633 1.9549822
-1.3120519 0.48632282 1.9418547
-1.3230531 0.48469356 1.9286685
-1.3372755 0.48426825 1.9202607
1.4244089 0.49297133 2.0140882
1.4162238 0.49576783 2.0327811
1.3879708 0.49152267 2.0222795
1.3905352 0.49821931 2.05709
1.3407779 0.4861058 2.0134952
1.3526815 0.49632525 2.0630021
1.2925309 0.48003349 2.0013254
1.2793661 0.4810051 2.0118842
1.2624977 0.48059118 2.0165281
1.2384689 0.47740656 2.0093269
1.2216867 0.47696957 2.0136485
1.2154036 0.48067346 2.0355442
1.1930745 0.47804534 2.0303524
1.1811275 0.4795627 2.0428028
1.1685871 0.48087668 2.0543311
1.1373874 0.47444332 2.0323682
1.1187751 0.47315484 2.0324347
1.1011504 0.47225368 2.0340683
1.0853938 0.47213939 2.0390215
1.0678197 0.47121972 2.040375
1.0360254 0.46390566 2.0136561
1.0169686 0.46216205 2.0111187
1.0053699 0.46380627 2.0233531
1.0004898 0.46864814 2.0496311
0.97382361 0.46327683 2.0308187
0.94581532 0.45708662 2.0081873
0.9480055 0.46552619 2.0502648
0.92028302 0.45931277 2.0272646
0.90481794 0.45911193 2.0308595
0.89169127 0.46011093 2.0397286
0.87081707 0.4570778 2.030488
0.86257166 0.46068314 2.0508859
0.84110248 0.4572286 2.0395398
0.81655562 0.45194513 2.0198159
0.80057102 0.45129296 2.0208161
0.79271239 0.45528319 2.0427129
0.76247072 0.44632435 2.0059536
0.76297671 0.45536584 2.0506372
0.74692398 0.45468834 2.0512154
0.72045749 0.44751474 2.0221281
0.69955581 0.44357115 2.0075836
0.69394642 0.44936246 2.0373738
0.67506027 0.44662121 2.0281329
0.65513647 0.44305664 2.0150034
0.64043188 0.44294 2.0175734
0.62169814 0.43996662 2.0069358
0.6062389 0.43922424 2.0064538
0.58889598 0.43704778 1.9992777
0.57382947 0.43649429 1.9994928
0.55983692 0.43675023 2.0033698
0.53408766 0.42760691 1.9636751
0.45375249 0.37308815 1.7135274
0.41780221 0.35305277 1.6226856
0.40596405 0.35283107 1.6236022
0.39207584 0.35076237 1.6158688
0.38031498 0.35052922 1.6166029
0.36985701 0.35151994 1.6229818
0.35577843 0.34902245 1.613039
0.34489059 0.34959316 1.6173459
0.33180895 0.34790295 1.6110324
0.31996611 0.34743744 1.610379
0.30887836 0.34778771 1.6134872
0.2977635 0.34813324 1.6165208
0.28442493 0.34580269 1.6069475
0.27383104 0.3467541 1.6127115
0.26223749 0.34646732 1.6126099
0.25065902 0.34617522 1.6124272
0.23795804 0.34423172 1.6044176
0.22660016 0.34413424 1.6050345
0.21576065 0.34485501 1.609453
0.20365007 0.34351167 1.6040908
0.19277802 0.34422231 1.6083573
0.18142225 0.34410399 1.6086624
0.16986781 0.34356815 1.6069423
0.15891697 0.34426367 1.6109848
0.14818363 0.34557289 1.6178778
0.14111914 0.35636389 1.6695552
0.13207251 0.36364689 1.7046252
0.12166093 0.36824489 1.7269601
0.11100781 0.37304503 1.7502098
0.099164352 0.37453905 1.7577643
0.087125883 0.37561488 1.7632855
0.076248825 0.38287726 1.7980542
0.063692749 0.38291034 1.7985314
0.051795267 0.38789195 1.8223971
0.039154492 0.3887392 1.82662
0.026906392 0.39618713 1.8620645
0.014053424 0.40032598 1.8817722
0.00091463729 0.39826491 1.8720388
-0.011017807 0.36109936 1.6958822
-0.020289039 0.32041952 1.5030279
-0.030701101 0.31937519 1.4979624
-0.040964156 0.3177067 1.4898925
-0.051450849 0.31809771 1.491533
-0.061881915 0.31807092 1.4911464
-0.072122402 0.31721368 1.4867793
-0.082734928 0.31800261 1.4901597
-0.093095474 0.31775475 1.4885831
-0.10357261 0.31791469 1.4888885
-0.11391053 0.31765717 1.4871707
-0.1247947 0.31883845 1.4922087
-0.13496691 0.31815866 1.4883976
-0.14556351 0.31850511 1.4893893
-0.15597847 0.31843427 1.4883604
-0.16638626 0.31835866 1.4872605
-0.17690085 0.31848422 1.4870613
-0.18717852 0.31819308 1.4848474
-0.19768994 0.31830901 1.4845046
-0.20995542 0.32109591 1.4966899
-0.21886693 0.31873217 1.4845693
-0.22939694 0.31883356 1.4840072
-0.24132226 0.32078075 1.4920691
-0.2509498 0.31963855 1.4855599
-0.26167566 0.31993076 1.4857392
-0.27433857 0.32247743 1.4964355
-0.28353456 0.32091105 1.4877943
-0.29488143 0.32180405 1.4906249
-0.30589226 0.32228127 1.4914529
-0.31672803 0.3225483 1.4912435
-0.32736841 0.32260552 1.4900007
-0.33865136 0.32327262 1.4915487
-0.34952992 0.32352483 1.4911059
-0.36429268 0.32725146 1.5067689
-0.43719172 0.38149458 1.7570418
-0.49718872 0.42177325 1.9418631
-0.5159483 0.42583552 1.9583066
-0.52937019 0.42539421 1.9537864
-0.53884572 0.42188594 1.935022
-0.56358796 0.43020689 1.9708457
-0.5800944 0.43198827 1.9763424
-0.58801788 0.42744544 1.9526266
-0.60137838 0.42697448 1.9476196
-0.62027222 0.43036422 1.9602704
-0.64207107 0.43557376 1.981143
-0.65561783 0.43508017 1.9757682
-0.65630418 0.42625514 1.9322579
-0.68226951 0.43387389 1.9638183
-0.70056915 0.43640608 1.9720246
-0.71470344 0.43629411 1.9680958
-0.73558742 0.44022596 1.9824456
-0.74188507 0.43544501 1.9571865
-0.75945735 0.43733728 1.9621056
-0.78214234 0.44204897 1.9796413
-0.78764886 0.43705693 1.9533092
-0.81170768 0.44235387 1.9732436
-0.83119237 0.4450157 1.9811832
-0.84508997 0.444646 1.9754233
-0.85856277 0.44406915 1.9686668
-0.89293671 0.45414171 2.0093222
-0.88656622 0.44350141 1.9575597
-0.91825867 0.45193812 1.9906052
-0.92810553 0.44952583 1.9753563
-0.94661218 0.45131773 1.9786527
-0.97672564 0.45850301 2.0056057
-0.98218167 0.45407102 1.9812419
-0.9921748 0.4518376 1.9665374
-1.0171366 0.45638633 1.9814759
-1.0310887 0.45593482 1.9744108
-1.0577908 0.4610534 1.9915212
-1.0658045 0.45799693 1.9729421
-1.0820568 0.45851654 1.9698365
-1.1078237 0.46299833 1.9837457
-1.1160434 0.46012455 1.9657946
-1.1425778 0.46477744 1.9801486
-1.1590191 0.46525624 1.9764365
-1.1809567 0.46790019 1.9818728
-1.2141377 0.47487384 2.0055873
-1.2191119 0.47077832 1.982074
-1.2357013 0.47121453 1.977754
-1.2512482 0.4712474 1.9716403
-1.24036 0.46144482 1.9241049
-1.2609124 0.46343437 1.9261583
-1.2961323 0.47070318 1.9501228
-1.3317528 0.47794455 1.9736913
-1.3225633 0.46912289 1.930352
-1.3373396 0.46890733 1.9227561
1.4081397 0.47135195 1.9933244
1.3856099 0.46913725 1.9909111
1.3780979 0.47201499 2.0102043
1.3507059 0.46807116 2.0001259
1.3354251 0.46828046 2.0077939
1.3035172 0.46259415 1.9898297
1.3031603 0.46810243 2.0203056
1.2820253 0.46619108 2.0184824
1.2563248 0.46255103 2.0089576
1.2559022 0.46824333 2.04022
1.2363877 0.46687225 2.0404484
1.2249357 0.46854946 2.054019
1.2024888 0.46600989 2.0488703
1.1723697 0.46038982 2.029886
1.1406527 0.45398194 2.0071647
1.1383587 0.45926946 2.0364509
1.1211421 0.45859963 2.0390956
1.1067333 0.4590756 2.0467873
1.082201 0.45530602 2.0352845
1.0619563 0.4532572 2.0313799
1.0534148 0.45621672 2.0500185
1.021806 0.44912544 2.0230246
1.0175111 0.45400679 2.050262
0.98852915 0.44785371 2.0271978
0.96961218 0.44613966 2.0242116
0.96448535 0.45081705 2.0503945
0.93819612 0.4455941 2.0311239
0.91343558 0.440938 2.0142727
0.90798438 0.44560319 2.0402467
0.88739717 0.44287241 2.0320413
0.86889219 0.44110462 2.028163
0.85199887 0.44010741 2.0277476
0.83924085 0.44124883 2.0371826
0.81472158 0.43613574 2.0174067
0.80916542 0.44117257 2.0448592
0.78671902 0.43701681 2.0293117
0.77628881 0.4395045 2.0447543
0.75380677 0.43513268 2.0279491
0.73359764 0.43192452 2.0164673
0.71652746 0.43047142 2.0131264
0.70210379 0.43058088 2.0170617
0.68703586 0.43029144 2.0190365
0.67689353 0.43314135 2.0357981
0.65271801 0.42693874 2.0095897
0.63571113 0.42524996 2.0046577
0.62513894 0.42788711 2.0202074
0.60650724 0.42500204 2.0094106
0.58998156 0.42348814 2.0050428
0.5740844 0.42236111 2.0024302
0.55616027 0.41964698 1.9921376
0.52309835 0.40506804 1.924906
0.46489376 0.36970785 1.7577581
0.4291226 0.35072181 1.6687548
0.40426242 0.33982489 1.6183624
0.39179423 0.33901072 1.616321
0.37937483 0.33819085 1.614186
0.36635798 0.33677065 1.6090901
0.35573 0.33752564 1.614427
0.34464186 0.33787972 1.6177773
0.33352509 0.33822912 1.6210526
0.31954411 0.33559537 1.6098285
0.30810663 0.33553693 1.6110089
0.29754752 0.33646727 1.6169307
0.28472373 0.3348088 1.6102357
0.27168259 0.33274633 1.6015096
0.26017767 0.33246809 1.6013911
0.24973083 0.33357799 1.6079719
0.23806725 0.33309081 1.6067294
0.22683986 0.33319581 1.6083158
0.21482891 0.33210057 1.6039969
0.20386602 0.33259389 1.6073694
0.19240527 0.33228517 1.6067762
0.1808539 0.33177185 1.6051292
0.17004828 0.33264926 1.6102235
0.16156101 0.33850887 1.6396283
0.15718634 0.35454121 1.7187632
0.14526977 0.35480973 1.7207714
0.13535658 0.36046186 1.7490777
0.12355855 0.36171865 1.7558247
0.11204222 0.36416814 1.7683611
0.10063167 0.3676112 1.7857153
0.089656882 0.37384522 1.8166987
0.076531075 0.37168643 1.8064982
0.064684264 0.37611294 1.8285208
0.052150331 0.37773767 1.8367541
0.040067282 0.38475049 1.8713533
0.027494065 0.39155826 1.9048932
0.013697417 0.37738344 1.8354685
0.00079077808 0.33303532 1.6179937
-0.0098632956 0.3126556 1.5180191
-0.020128472 0.30745444 1.4924419
-0.030556569 0.30744281 1.492269
-0.04106313 0.30802569 1.4949635
-0.051408004 0.30740526 1.4917098
-0.061830372 0.30737931 1.4913236
-0.072202906 0.30714887 1.4898875
-0.082719684 0.30751279 1.4913158
-0.092957295 0.30687359 1.487782
-0.10355347 0.30742759 1.4900452
-0.11418539 0.30797669 1.4922341
-0.12444878 0.30752307 1.4894664
-0.13511695 0.30806246 1.4915096
-0.14506531 0.30700111 1.4856753
-0.15605058 0.30812934 1.4904983
-0.16624762 0.30765724 1.4874499
-0.17652455 0.30738005 1.4853067
-0.18726474 0.30789545 1.4869838
-0.19765297 0.30780822 1.4856703
-0.20803218 0.30771646 1.4842861
-0.21868463 0.3080183 1.4847702
-0.22935401 0.3083154 1.4851797
-0.24205174 0.31119427 1.4980943
-0.25122589 0.30949184 1.4886732
-0.26112244 0.30878019 1.4840262
-0.27323979 0.31064826 1.4918513
-0.28402644 0.31092089 1.4918764
-0.29501528 0.31138742 1.4927869
-0.30564129 0.31145197 1.4916973
-0.31626698 0.3115119 1.4905334
-0.32793236 0.31255892 1.4940845
-0.33751574 0.31161809 1.4879831
-0.34990853 0.31324944 1.4942355
-0.36240497 0.31487471 1.5003892
-0.3827436 0.32302555 1.53785
-0.47764018 0.39189631 1.8667896
-0.50949121 0.40671003 1.9355624
-0.52426696 0.40747145 1.9367667
-0.54221529 0.41059613 1.9492003
-0.55715466 0.41134283 1.9501615
-0.57542187 0.41445002 1.9623063
-0.58435267 0.41084468 1.9423522
-0.60881692 0.41807419 1.9739316
-0.62348008 0.41839731 1.9725238
-0.64295375 0.42186239 1.9859442
-0.65896988 0.42295739 1.9880139
-0.66910493 0.42031145 1.9723015
-0.68544203 0.42159051 1.9750872
-0.70185304 0.42286178 1.9777418
-0.71302342 0.42098805 1.9655025
-0.73015434 0.42263797 1.9697702
-0.74703729 0.42408359 1.9729774
-0.75838345 0.42239079 1.9613959
-0.77819139 0.42538631 1.9716684
-0.79235893 0.4252457 1.9671897
-0.81687421 0.43056417 1.9880387
-0.81912512 0.42416671 1.954306
-0.83014035 0.42245018 1.9423096
-0.85893518 0.42968622 1.9716706
-0.87236482 0.42912263 1.9648193
-0.8885572 0.42991415 1.9641412
-0.90845823 0.4324455 1.9713621
-0.92767912 0.43457785 1.9766223
-0.93987632 0.43340459 1.9666415
-0.96520609 0.43823007 1.9839749
-0.99299139 0.4440071 2.0054543
-0.9978705 0.43952224 1.9801325
-1.0255864 0.44508007 2.0003135
-1.0437143 0.44637606 2.0010338
-1.0449933 0.44053203 1.9694719
-1.0722888 0.44566587 1.9872988
-1.0829967 0.44385853 1.9738138
-1.0926224 0.44166338 1.9585581
-1.1223052 0.44752547 1.9791865
-1.1450256 0.45049182 1.9867171
-1.159526 0.45018873 1.9796015
-1.1919559 0.4567641 2.0028048
-1.2015389 0.45452803 1.986936
-1.2257795 0.45782313 1.9953374
-1.2393467 0.45709926 1.9859706
-1.2575501 0.45808208 1.9839909
-1.2736758 0.45829329 1.9785451
-1.2913927 0.45906496 1.9754423
-1.3150716 0.46191245 1.9812092
-1.3094229 0.45451301 1.9426682
-1.3374953 0.45885453 1.9546719
-1.3479706 0.45712844 1.9405065
1.4025491 0.45355517 1.987676
1.3940268 0.45597664 2.0054374
1.3781413 0.45601797 2.0126064
1.39449 0.46685177 2.0678539
1.3500681 0.45735633 2.0323222
1.3190656 0.45223293 2.0160644
1.2910088 0.44800699 2.0036173
1.2815249 0.45020142 2.0199921
1.2682527 0.45110333 2.0304842
1.2369801 0.44554439 2.0115256
1.2186923 0.44458005 2.0132945
1.2034458 0.44471443 2.0199831
1.1916293 0.4461365 2.0325022
1.1743293 0.4455162 2.0355735
1.1464385 0.44080693 2.0196669
1.1397903 0.44424841 2.0412891
1.1122078 0.43951273 2.0249548
1.0979134 0.43996871 2.0325842
1.0909021 0.44339797 2.0540183
1.0714432 0.44179389 2.0518997
1.0605459 0.44372487 2.0662425
1.0323508 0.4383682 2.0462728
1.0036242 0.43262029 2.0242503
0.99279094 0.43452725 2.0381911
0.97718155 0.43437073 2.0423172
0.95658541 0.43195745 2.0356419
0.92672884 0.42521736 2.0082405
0.92187285 0.42991558 2.0351715
0.8944875 0.42408869 2.0118091
0.88347673 0.42595938 2.0251205
0.87002468 0.42669719 2.0329511
0.85386723 0.42611077 2.0343468
0.83588016 0.42457411 2.0310707
0.82236451 0.42529407 2.0385842
0.80950612 0.42638686 2.0478361
0.78669834 0.42218146 2.0313432
0.76935202 0.42080176 2.0284202
0.75242752 0.41960326 2.0262764
0.73290861 0.41688114 2.0166078
0.72434562 0.42040685 2.0373225
0.70208138 0.41596171 2.0190339
0.6876415 0.41606188 2.0228646
0.6716485 0.41520625 2.0219309
0.65389901 0.41320273 2.0152671
0.63686597 0.41157126 2.0103297
0.62223899 0.41145504 2.0127628
0.60620427 0.4103803 2.0103889
0.58556128 0.40605766 1.9918705
0.57111073 0.40592054 1.9939395
0.54854482 0.39986071 1.9665776
0.50085944 0.3746908 1.8442211
0.49717888 0.38197076 1.8827341
0.47144026 0.37223786 1.8366238
0.41762856 0.33915207 1.6740054
0.39242238 0.32803613 1.6205071
0.38020706 0.3274357 1.6193258
0.36694932 0.32587206 1.6132672
0.35567641 0.32602721 1.6157349
0.34195825 0.32387671 1.6066015
0.33092999 0.32421353 1.6098603
0.31911701 0.32377821 1.6091925
0.30915475 0.32525781 1.618083
0.29592049 0.3232764 1.6095347
0.28451121 0.32321018 1.6105497
0.27326497 0.32333145 1.6124535
0.26060447 0.32171726 1.6055603
0.24849999 0.32067424 1.6014812
0.23803067 0.3217425 1.6079938
0.22626252 0.32107416 1.6056924
0.21582717 0.32232609 1.613035
0.20530123 0.32357386 1.6203111
0.19237572 0.32096434 1.6080313
0.18376189 0.3256714 1.6327109
0.17930382 0.33885691 1.7002895
0.16972938 0.34356034 1.7249109
0.15796481 0.3442111 1.7289594
0.14909509 0.35180023 1.7681311
0.13706702 0.352635 1.7730196
0.12477388 0.35288587 1.7748916
0.11295304 0.35467505 1.7845142
0.10324725 0.36437201 1.8342261
0.090368114 0.36402893 1.832927
0.077758715 0.36483833 1.8374211
0.066603638 0.37413654 1.8849761
0.053967264 0.3776384 1.9030402
0.040522445 0.37592173 1.8945345
0.025429459 0.34987026 1.7623198
0.011549041 0.30739909 1.5465976
0.00073371036 0.29851961 1.5015053
-0.0096975081 0.29697284 1.493625
-0.020307664 0.29966944 1.5072587
-0.030590229 0.29734114 1.4953126
-0.041028384 0.29732525 1.4950682
-0.051731966 0.29884914 1.5025976
-0.061898448 0.29727954 1.4943659
-0.072141528 0.29647774 1.4899877
-0.082649492 0.29682943 1.4914196
-0.09299916 0.29659754 1.489841
-0.1031964 0.29597521 1.4862339
-0.11349637 0.29573435 1.4845163
-0.1242623 0.2966463 1.4885958
-0.13456474 0.29639629 1.4867352
-0.14494176 0.29633465 1.4857818
-0.15531208 0.29626849 1.4847574
-0.16642979 0.2975468 1.4904895
-0.17660342 0.29708597 1.4873691
-0.1871058 0.29719871 1.4871023
-0.19774108 0.29749951 1.4877357
-0.20825948 0.29760313 1.4873229
-0.21934754 0.29847193 1.4907215
-0.22886325 0.2972196 1.4833685
-0.24061067 0.29884833 1.4904925
-0.25182161 0.29970247 1.4936544
-0.26157421 0.29882208 1.4880325
-0.27336028 0.30024302 1.4939367
-0.28215426 0.29839414 1.4833548
-0.29288617 0.29865372 1.4833193
-0.30499581 0.30025169 1.4899409
-0.31559938 0.30030975 1.4887832
-0.32578585 0.29998001 1.485633
-0.33852229 0.30194536 1.4939071
-0.34696111 0.30007452 1.4829532
-0.36051029 0.30260339 1.4939126
-0.37305543 0.30416891 1.4999913
-0.41368386 0.32790756 1.6163373
-0.49856082 0.38448456 1.895556
-0.52551073 0.39458334 1.9432981
