# .PCD v0.7 - Point Cloud Data file format
VERSION 0.7
FIELDS x y z
SIZE 4 4 4
TYPE F F F
COUNT 1 1 1
WIDTH 1472
HEIGHT 1
VIEWPOINT 0 0 0 1 0 0 0
POINTS 1472
DATA ascii
-1.2302413 0.19208576 1.9988078
-1.2352414 0.19048335 1.9758549
-1.2500812 0.19041885 1.9689506
-1.2562945 0.18905774 1.9484999
-1.2595735 0.18729275 1.9238769
-1.2944003 0.19020511 1.9475646
-1.3174201 0.1913349 1.9526372
-1.3243293 0.19012575 1.9335741
1.3535575 0.17643741 1.9440123
1.3769577 0.18154907 2.0077517
1.4078696 0.18778144 2.0843301
1.3388556 0.18067551 2.0116465
1.3171492 0.17986055 2.0091627
1.326212 0.18327819 2.0543332
1.2932042 0.18089423 2.0339413
1.2768641 0.1808117 2.0394483
1.2594731 0.18057643 2.0431237
1.2420971 0.18033741 2.0466545
1.2293152 0.18076779 2.057761
1.2124223 0.18059699 2.0618963
1.1985165 0.18087253 2.0710833
1.1585397 0.17716852 2.0341654
1.1404634 0.1767588 2.0351386
1.1166908 0.17544292 2.0254605
1.1068172 0.17630449 2.0410135
1.0869905 0.17558259 2.0380175
1.0617386 0.17395122 2.0242298
1.0539984 0.17518322 2.04392
1.028115 0.17339157 2.0279675
1.0109063 0.17303129 2.0287375
1.0076886 0.17509109 2.0580635
0.98994076 0.17465073 2.057745
0.9663223 0.17314473 2.0446405
0.93918175 0.17094988 2.0231571
0.9370476 0.17330931 2.0559056
0.91265631 0.17156212 2.0395086
0.90447867 0.17285529 2.0594351
0.88156462 0.17132834 2.0454237
0.86892319 0.17177959 2.0550997
0.83987546 0.16894643 2.0250497
0.83628953 0.17122538 2.056648
0.82314265 0.17159398 2.0651114
0.79658645 0.16912919 2.039094
0.77963626 0.16864948 2.0370445
0.76831818 0.16939305 2.0498102
0.75208783 0.16906151 2.0493996
0.73222011 0.16788274 2.0385325
0.71516716 0.16731447 2.0350208
0.69916576 0.1669737 2.0342028
0.68289685 0.16655318 2.032315
0.66916108 0.16674565 2.0378842
0.65326679 0.16639683 2.03671
0.63801438 0.16619939 2.0373182
0.61989266 0.16522801 2.0282722
0.60617018 0.16541088 2.0334158
0.58936894 0.1647421 2.0279291
0.57644969 0.1651521 2.0357459
0.56082118 0.16478704 2.033865
0.54678655 0.1648834 2.0376461
0.53147811 0.16459054 2.0365059
0.51304829 0.16328794 2.0226831
0.49341336 0.16151658 2.0028944
0.48235929 0.16253261 2.0178559
0.45413896 0.15765096 1.9589169
0.44908392 0.16075724 1.9999217
0.43382114 0.16029187 1.9961172
0.42127785 0.16083375 2.0048866
0.40154934 0.15857542 1.9783933
0.38828835 0.15880127 1.9830438
0.3782852 0.16042541 2.0052457
0.36340117 0.16002481 2.0018923
0.34739083 0.15907648 1.9915537
0.33333558 0.15898187 1.9919101
0.3210144 0.15974194 2.0029984
0.30031505 0.15621285 1.9598024
0.28465822 0.15509622 1.9470056
0.26946327 0.1541325 1.9360632
0.24328449 0.14645551 1.8399956
0.20774411 0.13198136 1.6575924
0.18945302 0.12741192 1.600551
0.17861995 0.12760159 1.6037875
0.16703358 0.12724261 1.6000102
0.1477509 0.12055302 1.5157713
0.11966354 0.1051062 1.3201367
0.10814693 0.10286056 1.2921089
0.098752961 0.10241052 1.2868518
0.090121709 0.10274057 1.2914735
0.080566771 0.10197429 1.2821076
0.072133668 0.10261398 1.2905904
0.06315466 0.1025482 1.2900563
0.054062147 0.10224608 1.2864726
0.045159735 0.10225521 1.286811
0.036282878 0.10234096 1.2880852
0.027432509 0.10258157 1.2912925
0.018723354 0.10383781 1.3073987
0.010699586 0.11479571 1.4470624
0.00085599616 0.1403854 1.7730987
-0.012107967 0.14946169 1.8887045
-0.026547473 0.15790927 1.9962372
-0.04026112 0.15774663 1.9940158
-0.054240208 0.15844215 2.0026634
-0.067264177 0.1566314 1.9793293
-0.073667571 0.14261447 1.8005193
-0.073473893 0.12171434 1.5340912
-0.082283281 0.11911882 1.5007032
-0.092768654 0.11925916 1.5020968
-0.1033444 0.11947574 1.5044123
-0.11336059 0.11906493 1.498701
-0.1236283 0.11896504 1.4968987
-0.13405254 0.11901961 1.4970131
-0.1442944 0.11891601 1.4950707
-0.1549222 0.11912305 1.4970264
-0.16439132 0.1184691 1.4880059
-0.17489566 0.11859436 1.4888299
-0.18615027 0.11918602 1.4955174
-0.19634637 0.11907325 1.4932235
-0.20692603 0.11919274 1.4938245
-0.21738085 0.11923233 1.4933643
-0.2273923 0.1190362 1.4898747
-0.23798884 0.11915012 1.4902577
-0.25022507 0.12004114 1.5004029
-0.25973645 0.1196059 1.4937477
-0.27057523 0.11979192 1.4948846
-0.28125936 0.11989818 1.4949636
-0.29214665 0.12008036 1.495946
-0.30306083 0.12026059 1.49685
-0.31379879 0.12036119 1.4966993
-0.32454923 0.12045994 1.4964722
-0.33552766 0.12063447 1.4971423
-0.34608588 0.12065189 1.4957892
-0.35641271 0.12059 1.4933919
-0.36743113 0.12075896 1.49383
-0.37677589 0.12038376 1.4874185
-0.38854176 0.12078149 1.4906037
-0.39934704 0.12086752 1.489843
-0.41147247 0.12133843 1.4938142
-0.42125267 0.12111148 1.4890491
-0.43346673 0.12157828 1.4928445
-0.44434407 0.12165684 1.4917608
-0.45522836 0.12173359 1.4905986
-0.4675943 0.12219403 1.4941196
-0.47761911 0.12203579 1.4899381
-0.48822662 0.12203011 1.4875865
-0.50102782 0.12256128 1.4917824
-0.51391143 0.12309001 1.4958726
-0.52556688 0.123309 1.4960891
-0.53658384 0.1233724 1.4943368
-0.54658288 0.12320387 1.4896924
-0.56313461 0.1244904 1.5027429
-0.57424265 0.12454766 1.5007166
-0.58930731 0.12544501 1.5088379
-0.72307384 0.15111761 1.817331
-0.77398646 0.15886585 1.9076049
-0.79967088 0.1612546 1.9326934
-0.81111157 0.16073819 1.9225655
-0.82167262 0.16006793 1.9105366
-0.84642363 0.16213825 1.9313715
-0.87029225 0.16397436 1.9492191
-0.87886649 0.16291603 1.9322912
-0.90349185 0.16481948 1.9506714
-0.92249995 0.16565466 1.9561579
-0.93477052 0.16527289 1.94707
-0.95348954 0.16602552 1.9513633
-0.96481699 0.16548786 1.9402868
-0.99706608 0.16850173 1.9710306
-1.0102912 0.16825978 1.9632322
-1.0317334 0.16937366 1.9712714
-1.0496144 0.16987984 1.9720523
-1.0670884 0.17030694 1.9717994
-1.0702802 0.16847414 1.9451399
-1.102674 0.1712255 1.9717164
-1.1212851 0.17179175 1.9727468
-1.1330258 0.17130435 1.9614995
-1.1481824 0.17133938 1.9562145
-1.1836363 0.17436348 1.9851409
-1.1753699 0.17095211 1.9401625
-1.2117497 0.17403841 1.9694419
-1.2139115 0.17219459 1.9423709
-1.240204 0.17377692 1.9541816
-1.2581264 0.17416248 1.952276
-1.2679402 0.17342974 1.937668
-1.2754202 0.17239878 1.9196857
-1.2965794 0.17321931 1.9224133
-1.3212018 0.17447834 1.9298881
1.3917607 0.16561435 2.0001891
1.3783036 0.16589671 2.0106044
1.3531067 0.16475618 2.0035238
1.3506157 0.16638601 2.0303278
1.3157296 0.16401628 2.0078437
1.3075916 0.16496405 2.0261412
1.2864923 0.1642798 2.024168
1.27391 0.16467968 2.0355592
1.2586335 0.1647369 2.0426154
1.2422955 0.16465488 2.0478468
1.2111981 0.16258948 2.028059
1.1904947 0.16188386 2.0251734
1.179333 0.16247423 2.0385356
1.1808088 0.16484456 2.0744214
1.1440378 0.16186742 2.0424087
1.1235701 0.16114709 2.0388715
1.1065202 0.1609038 2.0412977
1.0932286 0.16120781 2.0506377
1.0766429 0.16102783 2.0536952
1.0491673 0.15919033 2.0353041
1.0372431 0.15969312 2.0469339
1.0234452 0.15991814 2.0549166
1.0078487 0.15986465 2.0592155
0.99439526 0.1601547 2.0678966
0.9740991 0.15933451 2.0620368
0.9526844 0.15830246 2.0532761
0.93431932 0.15775205 2.0506809
0.90673 0.15560067 2.0269587
0.89824677 0.15671098 2.0459373
0.8777833 0.15573339 2.0373757
0.86404532 0.1559359 2.0442677
0.85177696 0.15641536 2.0547559
0.83306462 0.15570749 2.0494444
0.81667113 0.15541521 2.0495384
0.80140138 0.15532991 2.0522938
0.78082448 0.15419339 2.0409472
0.76739925 0.15445261 2.0481145
0.75152713 0.15421982 2.0486319
0.73970586 0.15482564 2.0603037
0.71101403 0.15185307 2.0238707
0.70700651 0.15413837 2.0579548
0.68868691 0.15333422 2.0504384
0.67730433 0.15407319 2.0636344
0.65760875 0.15291195 2.0511055
0.63427156 0.15083203 2.0260208
0.61970538 0.15078977 2.0283976
0.60146087 0.14982915 2.0182352
0.58228129 0.14858314 2.0040853
0.57114959 0.1493798 2.0176182
0.56170404 0.15066957 2.0378275
0.54662114 0.1504752 2.0377593
0.52956671 0.14971298 2.0298555
0.51337761 0.14915995 2.0247164
0.48591849 0.14520752 1.9729414
0.47967836 0.14755006 2.0072699
0.46427453 0.1471303 2.0036917
0.44677418 0.14599921 1.9902614
0.43494579 0.14670852 2.0020392
0.42257074 0.14727443 2.0117953
0.40516138 0.14606442 1.9970297
0.39253864 0.14655526 2.0056221
0.37853339 0.14654714 2.0072732
0.36187246 0.14547084 1.9941014
0.34847087 0.14567116 1.9984888
0.33257619 0.14480264 1.9880275
0.31903368 0.14492734 1.9912344
0.30111635 0.14298595 1.9657524
0.28542316 0.14196658 1.9529533
0.27510202 0.14365073 1.9775807
0.25732744 0.14141543 1.9477631
0.23825306 0.1381789 1.9039392
0.20794697 0.12766756 1.7589
0.18061911 0.11779021 1.6224662
0.16747299 0.11646432 1.6048092
0.15649201 0.11656269 1.6069067
0.14388835 0.11537494 1.5910475
0.1195085 0.1037655 1.4299603
0.099147275 0.093863048 1.2924931
0.089657351 0.093307786 1.2851783
0.081013493 0.093607686 1.2897419
0.071816422 0.093263499 1.2852846
0.063069411 0.093489066 1.2887329
0.054071669 0.093356065 1.2871395
0.045202248 0.093435854 1.288475
0.036400255 0.093728468 1.2927413
0.027500134 0.093876734 1.2949537
0.019926179 0.10088237 1.3928505
0.013079582 0.1281067 1.77297
0.00089432532 0.13389523 1.8538103
-0.012471505 0.14053901 1.9465332
-0.026539 0.14410812 1.9962701
-0.04026822 0.14403103 1.9950448
-0.053794339 0.14345159 1.9867467
-0.06730964 0.14308421 1.9813488
-0.07368055 0.13021454 1.80145
-0.074478611 0.11263145 1.5558084
-0.082297765 0.10876176 1.5014805
-0.092298217 0.10831864 1.4949104
-0.10255083 0.1082309 1.4932503
-0.11352937 0.10885526 1.5014673
-0.12348747 0.10847853 1.4956867
-0.13389994 0.10852836 1.4958025
-0.14441447 0.10864779 1.4968396
-0.15474604 0.10862283 1.4958191
-0.16496192 0.10852487 1.4937369
-0.1752716 0.10849656 1.4925761
-0.18618266 0.10882291 1.4962952
-0.19676656 0.10893365 1.4969682
-0.20628467 0.10847285 1.4896611
-0.21699189 0.10865148 1.4911805
-0.22802734 0.10897068 1.4945965
-0.23802988 0.10878996 1.4910355
-0.24929371 0.1091767 1.4952812
-0.25910458 0.10892165 1.4905963
-0.27079746 0.1094469 1.4966482
-0.28021219 0.10904658 1.4898624
-0.29162881 0.1094261 1.4937918
-0.30213279 0.10944876 1.4927449
-0.31243378 0.10939882 1.4906482
-0.32062778 0.10863822 1.4787282
-0.3336409 0.10950696 1.4891653
-0.34503129 0.10980653 1.4917151
-0.35372183 0.1092545 1.4825298
-0.3665494 0.10997535 1.4907417
-0.37708154 0.10998653 1.4891722
-0.39035046 0.11077373 1.4981537
-0.40069219 0.11071066 1.4954532
-0.41101637 0.11064611 1.4926822
-0.42105377 0.1105095 1.4888797
-0.43408942 0.11114729 1.4955564
-0.44385353 0.11093695 1.4906422
-0.45761165 0.11171143 1.4990332
-0.46531069 0.11100518 1.4872953
-0.47709432 0.11128311 1.4888341
-0.48861459 0.11148883 1.4893332
-0.49890766 0.11141175 1.4859575
-0.51238996 0.11203522 1.4919554
-0.52499735 0.11244582 1.4950114
-0.53767282 0.11285426 1.4979643
-0.54905421 0.11298036 1.4970627
-0.55975741 0.11296475 1.4942046
-0.57468849 0.11378683 1.502465
-0.58760417 0.11418679 1.5050074
-0.72502005 0.13832538 1.8229616
-0.77932358 0.14602742 1.9216028
-0.79563332 0.14646478 1.9235986
-0.8097012 0.14648144 1.9199384
-0.83002198 0.14760959 1.9308568
-0.84854686 0.148386 1.9370103
-0.8768937 0.15082632 1.9648904
-0.89131176 0.15083076 1.9606419
-0.90280265 0.15034761 1.9499412
-0.92222387 0.15117955 1.9563431
-0.93877876 0.15152325 1.9562633
-0.95059538 0.15110333 1.946171
-0.96496999 0.15109649 1.9413757
-0.98067087 0.15129448 1.9391478
-1.0086372 0.15335153 1.9607856
-1.0263813 0.15381782 1.9617621
-1.0367401 0.15317973 1.9484692
-1.0455542 0.15233435 1.9324878
-1.0804855 0.1552652 1.9646417
-1.1033332 0.15640381 1.9737188
-1.108725 0.15507059 1.9512852
-1.1386613 0.15716021 1.9721529
-1.1689436 0.15924259 1.9926971
-1.1787462 0.15851744 1.9777058
-1.1971368 0.15895092 1.9772109
-1.2077857 0.15835856 1.9637796
-1.2193619 0.15790087 1.9519902
-1.2419974 0.15886898 1.9578643
-1.2508067 0.15806653 1.9416593
-1.2610842 0.15746653 1.927936
-1.2772729 0.15761009 1.9233268
-1.2879148 0.15707378 1.9102914
-1.3107688 0.15802212 1.9153603
1.3913995 0.14977258 2.0004601
1.3785071 0.15008901 2.0116985
1.3644167 0.15028088 2.0211949
1.3436667 0.14973511 2.0205948
1.33061 0.15004386 2.0315197
1.3120881 0.14973636 2.033953
1.2893418 0.1489334 2.0294721
1.2677778 0.14824888 2.0264683
1.2624607 0.14947085 2.0496612
1.2465935 0.14945883 2.0557716
1.2251104 0.14876458 2.0523133
1.1856388 0.14583962 2.0176163
1.193912 0.14878783 2.064707
1.1368029 0.14355797 1.997291
1.1330519 0.145016 2.023407
1.1251686 0.14597785 2.0425568
1.1118798 0.14625537 2.0520229
1.0849863 0.14472593 2.0358152
1.0800219 0.14611974 2.0609493
1.0470462 0.14370929 2.0319049
1.0324612 0.14378926 2.038172
1.0174028 0.1438047 2.0434377
1.0088661 0.14475636 2.062058
0.98895156 0.14407966 2.0572352
0.9666155 0.14302354 2.0468132
0.95157015 0.14302976 2.0515921
0.92541009 0.14133868 2.0317054
0.92224562 0.1431618 2.0626404
0.89638412 0.14146371 2.0423865
0.88144124 0.1414604 2.0466523
0.86764473 0.14164412 2.0535693
0.85417879 0.14188921 2.0613151
0.834306 0.1410598 2.0532374
0.82522982 0.14205886 2.0718987
0.80440313 0.14103465 2.0607519
0.78164732 0.13962726 2.0438187
0.76577318 0.13941871 2.0444443
0.75197911 0.1395881 2.0505748
0.73512614 0.13918512 2.0481508
0.72294372 0.13966802 2.0587857
0.7058233 0.13919716 2.0551801
0.68815815 0.13859659 2.0495434
0.66906118 0.13767533 2.0390167
0.6540764 0.13757813 2.0406888
0.63347834 0.13626906 2.024143
0.62066674 0.13661303 2.0322442
0.60607833 0.13657296 2.0345221
0.59093732 0.13640338 2.0347784
0.57879108 0.13693389 2.0454919
0.56573796 0.13727149 2.0532465
0.54747409 0.13632929 2.0416307
0.52539599 0.13436083 2.0144048
0.5112648 0.13437182 2.0169761
0.50138718 0.13553329 2.0368989
0.48021221 0.13361941 2.0101709
0.46881709 0.13439335 2.0240993
0.45161495 0.13349895 2.0126398
0.43648461 0.13317913 2.0098212
0.4236539 0.13356304 2.017637
0.40108919 0.130799 1.9774343
0.38727364 0.13079286 1.9791445
0.37694061 0.13200584 1.9993967
0.36298969 0.13199632 2.0009394
0.34614399 0.13089135 1.985669
0.33524224 0.13203563 2.00472
0.31924033 0.13118334 1.9931616
0.30581078 0.13135873 1.9972659
0.29377159 0.13217635 2.0111566
0.27541822 0.13009298 1.9804912
0.26216534 0.13032658 1.9852918
0.24763064 0.12991364 1.9801013
0.23166943 0.12866004 1.9619216
0.20973513 0.12372681 1.8870791
0.17662849 0.11111072 1.69391
0.15661269 0.1055216 1.6086572
0.14542425 0.1054799 1.608694
0.13325596 0.10466174 1.5967195
0.11922196 0.10209798 1.5577886
0.09550342 0.089907929 1.3704063
0.081026457 0.0846892 1.29035
0.072047904 0.084636234 1.2898761
0.062934957 0.084388077 1.2863504
0.054080341 0.084461592 1.2877464
0.045174934 0.084469154 1.288085
0.036267351 0.084475361 1.2883627
0.028027844 0.086548574 1.3205057
0.023076862 0.10568543 1.6160175
0.013526734 0.11984449 1.8346729
0.00094076747 0.12740867 1.9514774
-0.01284765 0.13096304 2.0063219
-0.026595898 0.13063683 2.0011981
-0.040514413 0.13108416 2.0079534
-0.054124501 0.13055988 1.9996494
-0.06782458 0.13042133 1.9972385
-0.07522846 0.12026408 1.8401855
-0.075104609 0.10274053 1.5694984
-0.082040705 0.098076425 1.497205
-0.092617244 0.098321564 1.5005941
-0.1025672 0.097919166 1.4939533
-0.11332412 0.098290287 1.4991891
-0.12366968 0.098272339 1.4983808
-0.13400933 0.098252811 1.4975019
-0.1443426 0.09823174 1.4965521
-0.15466902 0.098209158 1.4955322
-0.1652049 0.098314054 1.4964259
-0.17576008 0.098417357 1.497246
-0.18584627 0.098261178 1.494031
-0.19666892 0.09849032 1.4966863
-0.20672362 0.098331176 1.4933319
-0.21731049 0.098428272 1.493862
-0.22716938 0.098201849 1.4893842
-0.23775582 0.098295942 1.4897709
-0.24933271 0.098774537 1.4959905
-0.26032913 0.098994017 1.4981884
-0.27013624 0.098761752 1.4934303
-0.28025579 0.098656721 1.4905708
-0.29167405 0.099000037 1.4945027
-0.30257151 0.099148937 1.4954129
-0.31207678 0.098846935 1.4894046
-0.32360771 0.099185325 1.4930946
-0.33649999 0.099906698 1.5025427
-0.34686536 0.099856794 1.5002111
-0.3569859 0.099741437 1.4968374
-0.36636952 0.099432692 1.4904869
-0.37762409 0.099634781 1.4918231
-0.39040986 0.10021897 1.4988739
-0.39870703 0.09965051 1.488456
-0.41134095 0.10016729 1.4943645
-0.42111728 0.099979788 1.4895983
-0.43029809 0.099663496 1.4828506
-0.44279203 0.10011137 1.4875346
-0.45450592 0.10036612 1.4892515
-0.46774116 0.10093757 1.4956443
-0.47595909 0.10042497 1.4857535
-0.48776293 0.10067481 1.4872112
-0.50086951 0.10117716 1.4923655
-0.51471353 0.10180441 1.4992993
-0.52573013 0.10185823 1.4976293
-0.53741819 0.10203738 1.4977592
-0.54845428 0.10208812 1.4959229
-0.55949289 0.10213737 1.4940054
-0.57053351 0.10218515 1.4920064
-0.59308517 0.10425457 1.5197163
-0.69364661 0.11971185 1.7440172
-0.77571321 0.13148154 1.9132965
-0.80294544 0.13370675 1.9420985
-0.81058925 0.13264956 1.9227369
-0.82427168 0.13259967 1.9180502
-0.84628373 0.13386905 1.9324876
-0.8596499 0.13375157 1.9266341
-0.89267147 0.13664667 1.964358
-0.89502019 0.13482907 1.9336923
-0.91728467 0.1360216 1.9464835
-0.93634069 0.13670896 1.9518481
-0.95203793 0.1368925 1.9498553
-0.96555054 0.13676111 1.9432609
-0.99602574 0.13900083 1.9704719
-1.0092361 0.13880113 1.9626801
-1.0242307 0.13884901 1.9583417
-1.0471373 0.13995299 1.9688935
-1.0631646 0.14011961 1.9660279
-1.0882884 0.14146411 1.9796802
-1.0928447 0.14013487 1.9555432
-1.1186852 0.14153394 1.9696945
-1.1333698 0.14150336 1.9636589
-1.1490334 0.14159419 1.9592378
-1.1611391 0.14124988 1.9486773
-1.1885747 0.14275551 1.963711
-1.1814526 0.14012478 1.9213663
-1.2232189 0.1432858 1.958969
-1.24271 0.14379218 1.9597558
-1.2601247 0.14404903 1.9569998
-1.2667006 0.14307548 1.9373474
-1.3219272 0.14755532 1.9918867
-1.2953157 0.14290234 1.9221141
-1.3053572 0.14235352 1.9081433
1.3978225 0.13459224 2.0104833
1.3719535 0.13361859 2.0027738
1.3707094 0.13504843 2.0313067
1.3454938 0.13412239 2.0240772
1.3345939 0.1346183 2.0383642
1.3041871 0.13313483 2.0223198
1.2809922 0.1323604 2.0169327
1.2763686 0.13350944 2.041013
1.258981 0.13333535 2.0446761
1.2410936 0.1331033 2.0473387
1.2115314 0.13159716 2.030091
1.1983652 0.13185599 2.0401349
1.1741909 0.13089448 2.0310385
1.1624781 0.13131502 2.0434406
1.1448364 0.13106813 2.0453017
1.1257935 0.13065188 2.0443866
1.0940577 0.12873058 2.0195601
1.0813932 0.12903079 2.0296988
1.0649613 0.12888363 2.0326698
1.0467275 0.12851098 2.0319533
1.0334918 0.12875003 2.0408938
1.0223991 0.12926716 2.0542216
0.99547976 0.12776861 2.0351572
0.9787637 0.12755372 2.0365458
0.96631742 0.12789722 2.04684
0.9341628 0.12560177 2.0144296
0.91895199 0.12554722 2.0180674
0.91264826 0.12672769 2.0416682
0.8949067 0.1263328 2.0396445
0.88391042 0.12689289 2.0530801
0.86775827 0.12671936 2.0544896
0.84631747 0.12575389 2.0428455
0.83889568 0.12687422 2.0652647
0.8139621 0.12533869 2.0440371
0.7947728 0.12464723 2.0365298
0.78670949 0.12570752 2.0577924
0.76343977 0.12433208 2.0387969
0.7421785 0.12323625 2.0242715
0.73756844 0.12491678 2.0556366
0.71646994 0.12381633 2.0408349
0.69593412 0.12276936 2.0267863
0.68162328 0.1227994 2.0305498
0.67131436 0.12356736 2.0465536
0.65446687 0.12313913 2.0425308
0.63859659 0.12287954 2.0412343
0.62538296 0.12313094 2.0484157
0.60785836 0.12252533 2.0411506
0.58935881 0.12168894 2.0299051
0.56780505 0.12016444 2.0069685
0.56160235 0.12189377 2.0387261
0.53830749 0.11990673 2.0077801
0.51746464 0.1183734 1.9843448
0.51157838 0.12027132 2.0188131
0.49624512 0.11999315 2.0164387
0.48327154 0.12028601 2.0236638
0.47424823 0.1216095 2.0483203
0.45167753 0.11943333 2.0135028
0.43233958 0.11799939 1.9911629
0.4212696 0.11880171 2.006772
0.40350828 0.1177073 1.9900242
0.39360568 0.11890906 2.012332
0.37956297 0.11890266 2.0139885
0.36410165 0.11843434 2.0076878
0.34704328 0.11738844 1.9914337
0.33349213 0.11749125 1.9947394
0.3232021 0.1188017 2.0186591
0.3082529 0.11844067 2.0139074
0.29209501 0.11755895 2.0001547
0.27586663 0.11655954 1.9842988
0.26336968 0.11711463 1.9950432
0.24914087 0.11691839 1.9928299
0.23274776 0.11562401 1.9716772
0.21906126 0.11559677 1.9722263
0.20219776 0.11377821 1.941897
0.17656182 0.10641398 1.8160338
0.14900556 0.096676953 1.6491499
0.13442616 0.094443612 1.6113253
0.12308554 0.094287783 1.6092181
0.11109361 0.093552552 1.5970724
0.096244358 0.089983746 1.536015
0.07376349 0.077511117 1.3213242
0.063136809 0.075728483 1.2908843
0.054212298 0.075736493 1.2912847
0.045216028 0.075627632 1.2896287
0.036827642 0.076731846 1.3088677
0.03046035 0.084138095 1.4368458
0.025762303 0.10553841 1.8063637
0.014134344 0.11201812 1.9183067
0.00096811377 0.11728179 2.0092056
-0.01285585 0.11722316 2.008167
-0.02665239 0.11710479 2.0060356
-0.040500294 0.11721586 2.007803
-0.054185916 0.11692026 2.0024893
-0.067834377 0.11668064 1.9980816
-0.076896936 0.10996393 1.8818607
-0.075776845 0.092725508 1.5841235
-0.082484961 0.088205881 1.505814
-0.092387132 0.087731592 1.4972439
-0.10258199 0.087602757 1.4945865
-0.11296809 0.087645888 1.4948467
-0.12368745 0.087918676 1.499016
-0.13341214 0.087496929 1.4911758
-0.14398387 0.087651372 1.4932116
-0.15458952 0.087804385 1.4951737
-0.16479485 0.087725095 1.4930916
-0.1754396 0.087875262 1.494907
-0.18562883 0.087793246 1.4926841
-0.19631071 0.087940589 1.4943527
-0.2066175 0.087913543 1.4929785
-0.21691456 0.087885149 1.4915336
-0.2270526 0.087797835 1.4890318
-0.23778939 0.08793959 1.490406
-0.24888054 0.088195048 1.4936739
-0.26002741 0.088448986 1.4968604
-0.26929468 0.088068627 1.4891548
-0.28157327 0.088664763 1.4980791
-0.29209349 0.088684335 1.497103
-0.30202574 0.088530213 1.493117
-0.31293094 0.088662051 1.4939539
-0.32344338 0.088677675 1.4927598
-0.33309045 0.088462509 1.4875933
-0.3435733 0.08847563 1.4862585
-0.35474199 0.088659391 1.4877654
-0.36594805 0.088841699 1.4891899
-0.37767595 0.089137018 1.4924674
-0.38996494 0.089545175 1.4975884
-0.39876151 0.08915104 1.4891008
-0.4106099 0.089441895 1.4921228
-0.42225033 0.089674033 1.4940909
-0.43256053 0.089619219 1.491172
-0.44398028 0.08979141 1.4920133
-0.45514452 0.08990512 1.4918125
-0.46544299 0.089846522 1.4886677
-0.47722962 0.090071417 1.4902104
-0.48844472 0.090180986 1.4897625
-0.49967784 0.090289146 1.4892309
-0.51157087 0.090509541 1.4905057
-0.52285171 0.090614833 1.4898013
-0.53348088 0.090605237 1.4871302
-0.54546249 0.090821199 1.4881377
-0.55922002 0.091318838 1.4937316
-0.57025558 0.09136159 1.4917355
-0.58704829 0.092308 1.5045598
-0.68678206 0.10602428 1.7271454
-0.76724875 0.11632883 1.8928444
-0.80229324 0.11950551 1.9411193
-0.80799943 0.11827787 1.9171504
-0.83416551 0.12003608 1.9418737
-0.83883721 0.11869418 1.9159584
-0.85854995 0.11948968 1.9247648
-0.87514538 0.11983265 1.9261072
-0.89263731 0.12028552 1.9291252
-0.91994053 0.12202562 1.9527957
-0.93560445 0.12219203 1.9509354
-0.9512912 0.12235632 1.9489498
-0.96655858 0.12246256 1.9459434
-0.98004454 0.1223433 1.9392468
-1.0116354 0.12445482 1.9680326
-1.0257428 0.12438584 1.9619064
-1.0388874 0.12420371 1.9539112
-1.0505599 0.12385307 1.9431863
-1.0788695 0.12544654 1.9630723
-1.0910503 0.1251469 1.9529656
-1.122261 0.1270089 1.976709
-1.1230999 0.12542985 1.9463875
-1.1381379 0.12545709 1.9411764
-1.1836425 0.12879883 1.9874231
-1.1943831 0.12832096 1.9740622
-1.208119 0.1281728 1.9657601
-1.223379 0.12818804 1.9599077
-1.2333041 0.12765071 1.9454842
-1.2678143 0.12964028 1.969725
-1.2869678 0.13003087 1.969283
-1.2726874 0.12707397 1.9177948
-1.3126862 0.12954247 1.9487866
-1.3638279 0.13304113 1.9950134
1.3934505 0.11834919 2.0047827
1.3850281 0.11898489 2.0226455
1.3536441 0.11763985 2.0064566
1.3319036 0.11711113 2.0041056
1.3325735 0.11856375 2.0358903
1.3107989 0.11803034 2.0332828
1.2955184 0.1180758 2.0406106
1.2802035 0.11811922 2.0478227
1.2606893 0.11777144 2.0481002
1.2288818 0.11625194 2.0276625
1.2147253 0.11638464 2.0361037
1.1990067 0.1163692 2.0418546
1.1743267 0.11547215 2.031889
1.1581936 0.11540285 2.0364652
1.1381793 0.11493971 2.0339282
1.1072457 0.11334612 2.0110512
1.1107336 0.11528086 2.051187
1.0992553 0.11569485 2.0640895
1.0775225 0.11502599 2.0574329
1.0491209 0.11361558 2.0372326
1.0277815 0.11293975 2.0301254
1.0163254 0.113346 2.0425212
1.0038801 0.1136526 2.0530562
0.9836055 0.11306858 2.0472875
0.96642917 0.11282805 2.0476673
0.95305651 0.113031 2.0560722
0.93961889 0.11323268 2.0643883
0.9139688 0.11194513 2.0452256
0.89700383 0.11169621 2.0450389
0.88048184 0.11149495 2.0456331
0.84662592 0.10905398 2.0046446
0.84034038 0.11014104 2.0288765
0.83152592 0.11092948 2.0475562
0.81405711 0.11057109 2.0448446
0.7999149 0.11065962 2.0503721
0.78255069 0.11029737 2.0473967
0.7652688 0.10993303 2.0442791
0.75182587 0.1101167 2.0513453
0.73631561 0.10999887 2.0526774
0.71688318 0.10927834 2.0425749
0.70116991 0.10910658 2.0427024
0.68643832 0.1090835 2.0455532
0.66613942 0.10815552 2.0312035
0.65363705 0.10848031 2.0404675
0.63571203 0.10789943 2.032486
0.61995625 0.10766833 2.0310464
0.60934651 0.10834119 2.0467272
0.58970624 0.1074021 2.0316465
0.57839984 0.10797187 2.0452418
0.56535697 0.10823834 2.0529971
0.52990061 0.104115 1.9766997
nan nan nan
0.49849066 0.10337431 1.9672825
0.49749023 0.10610859 2.0220602
0.47849515 0.10505269 2.0040281
0.46759778 0.10576452 2.0199003
0.45108226 0.10521038 2.0113454
0.43765068 0.105363 2.0163288
0.423969 0.10546356 2.0202453
0.40808827 0.10500522 2.0132997
0.3934643 0.1048491 2.012115
0.38052809 0.10514782 2.0196607
0.36626941 0.10509 2.0202434
0.3491284 0.1041676 2.0039968
0.33565837 0.10430933 2.008302
0.32136247 0.10419559 2.0075855
0.31039095 0.10519824 2.0284913
0.29241827 0.10381061 2.0028861
0.27835754 0.10374267 2.0028553
0.2631436 0.10321526 1.9938143
0.25015584 0.103551 2.0015097
0.23254497 0.10190024 1.9704357
0.22269863 0.10365815 2.0057275
0.20786645 0.10317463 1.9972655
0.1920103 0.10207801 1.9767666
0.17217058 0.098533779 1.9083993
0.14414628 0.089330129 1.7293782
0.12325212 0.083281517 1.6118152
0.1122745 0.08339759 1.6146109
0.10089335 0.08320646 1.6113517
0.089066662 0.082555018 1.5990387
0.070375249 0.074456461 1.4410009
0.054260645 0.066864885 1.292769
0.045567565 0.067227937 1.3000953
0.039191645 0.072027937 1.3942169
0.036724623 0.089478955 1.7359313
0.026499758 0.095757663 1.8589685
0.014391588 0.10060675 1.9539793
0.00097110297 0.10377081 2.0159512
-0.012882875 0.10361703 2.0129142
-0.026668983 0.10335957 2.007786
-0.040445548 0.10325349 2.0055599
-0.053871263 0.10253362 1.9912599
-0.06760776 0.10257731 1.9918441
-0.075410724 0.095121808 1.8456455
-0.075644821 0.081648402 1.5817263
-0.082117125 0.077457279 1.4993997
-0.092398971 0.077395797 1.4978073
-0.10232441 0.077078231 1.4911633
-0.11290804 0.077269211 1.4944135
-0.12321558 0.077255055 1.493608
-0.13378143 0.077392533 1.4957167
-0.14390737 0.077274047 1.4927803
-0.15450753 0.077409036 1.4947441
-0.16492423 0.07744091 1.4946476
-0.17430978 0.077013448 1.485551
-0.18565236 0.077450089 1.493248
-0.19646429 0.07763093 1.4959079
-0.20650807 0.077505313 1.4925532
-0.21694191 0.077531107 1.4920979
-0.22767714 0.077657349 1.4935454
-0.23781925 0.077579096 1.4909706
-0.24826179 0.077601291 1.4902985
-0.25972155 0.077926911 1.4954596
-0.26950425 0.077743635 1.4907035
-0.28033 0.077863686 1.4917752
-0.29118314 0.077982485 1.4927694
-0.30147517 0.077947982 1.4907476
-0.31337503 0.07831762 1.4964789
-0.32369265 0.078280695 1.4943056
-0.33399561 0.07824266 1.4920616
-0.34428358 0.078203522 1.4897473
-0.35524419 0.07831499 1.490279
-0.36764461 0.078728393 1.4965534
-0.37820724 0.078736186 1.4949776
-0.38851711 0.078692369 1.4923607
-0.40060058 0.079000622 1.4964314
-0.40908515 0.078601547 1.4869155
-0.42203239 0.079058439 1.4937055
-0.43288824 0.079110809 1.4927081
-0.44346943 0.079111688 1.4906744
-0.45202404 0.078759402 1.4818734
-0.46697456 0.079512194 1.4940159
-0.47728667 0.07945928 1.4907898
-0.48727009 0.079355143 1.4865426
-0.50099605 0.079851948 1.4936032
-0.5119527 0.079895839 1.4920338
-0.52651757 0.080489539 1.5007627
-0.53621668 0.080330513 1.4952433
-0.54722947 0.080370672 1.4934173
-0.5585919 0.080459632 1.4924467
-0.57032245 0.080597274 1.492324
-0.58747673 0.081482068 1.5060862
-0.68173653 0.092834368 1.7148198
-0.76957333 0.10292169 1.8991547
-0.78950614 0.10373279 1.91047
-0.80501205 0.10394429 1.9105415
-0.83269644 0.10569442 1.9389731
-0.84808356 0.10585129 1.9377955
-0.85784131 0.10531193 1.9237098
-0.8846845 0.10685359 1.947825
-0.89024109 0.10581609 1.9244564
-0.90989935 0.10646096 1.9318681
-0.93571246 0.10779504 1.9517257
-0.95401227 0.10823623 1.9551353
-0.9662286 0.10798435 1.94584
-0.9944796 0.10950553 1.968612
-0.99405766 0.10787108 1.9341367
-1.0249414 0.10963199 1.9609393
-1.0348138 0.10912745 1.9467651
-1.051625 0.10935852 1.94575
-1.0919015 0.11198995 1.987564
-1.0800418 0.10927519 1.9336842
-1.1155288 0.11135938 1.9653498
-1.1366249 0.11197101 1.9706079
-1.1658853 0.11336052 1.9894801
-1.1538042 0.11074629 1.9375241
-1.1986336 0.11359156 1.9817475
-1.2285358 0.11496873 1.9998547
-1.2051187 0.1113838 1.9310189
-1.2212197 0.11149428 1.9268668
-1.2432373 0.11213576 1.9318432
-1.2518028 0.11156306 1.9156512
-1.2964485 0.11418153 1.9544996
-1.2939748 0.11263743 1.9213926
-1.3527764 0.11640137 1.9793471
1.389057 0.10220385 1.9989673
1.3627115 0.10141696 1.9903566
1.3799032 0.10388959 2.046241
1.356239 0.10330825 2.0415635
1.3370631 0.10305904 2.043359
1.2980119 0.10125341 2.0138447
1.2999108 0.10263709 2.0481358
1.2661136 0.10120168 2.0256612
1.2576927 0.10178409 2.0437441
1.2295214 0.10076265 2.0292685
1.2158662 0.10091989 2.0385733
1.2021461 0.10107577 2.0477841
1.1893559 0.10131497 2.058634
1.1583108 0.09998478 2.0372083
1.1407191 0.099795647 2.0390353
1.1284317 0.10007173 2.05036
1.1136831 0.10013417 2.057209
1.081627 0.098620325 2.0312674
1.066113 0.098593064 2.0360091
1.056955 0.099161312 2.053087
1.0458238 0.099558428 2.0665619
1.0168701 0.098245442 2.0441446
1.0004926 0.098126158 2.0465949
0.99101382 0.098690234 2.063344
0.97330648 0.098439656 2.0628669
0.9485603 0.09745796 2.0468123
0.92819899 0.096902415 2.0396197
0.90879667 0.096430413 2.0340698
0.89550006 0.096601352 2.0420897
0.88214093 0.096771218 2.0500219
0.86370051 0.096379921 2.0458865
0.84878111 0.096374691 2.0499108
0.82825005 0.095720761 2.0399258
0.81267226 0.095625907 2.0418351
0.80035752 0.095918611 2.052011
0.7805053 0.095301986 2.0424964
0.76778281 0.095548972 2.0515373
0.75019604 0.095188417 2.047354
0.73103124 0.094609238 2.0383203
0.72352892 0.095546573 2.0621419
0.69157922 0.09322729 2.0150278
0.68650973 0.094509982 2.0462494
0.67177337 0.094488688 2.0489936
0.6488632 0.093291223 2.0259254
0.63548255 0.093440637 2.0322199
0.61567742 0.092630401 2.0173905
0.60686308 0.093474567 2.0387945
0.58534449 0.092355356 2.0169709
0.5684737 0.091931894 2.0103402
0.55330259 0.091768682 2.0093558
0.52174044 0.088806927 1.9464673
0.51408046 0.089863583 1.9722295
0.51169538 0.091926478 2.0202615
0.49754348 0.091932796 2.0227363
0.47946766 0.091193192 2.0085857
0.46943724 0.091985323 2.0283632
0.45351782 0.091636948 2.0227423
0.43727726 0.091199167 2.0150466
0.42360759 0.091286279 2.018961
0.40970835 0.091328226 2.0218036
0.39084315 0.090226755 1.9990519
0.38056955 0.091100559 2.02033
0.36436379 0.090566881 2.0100968
0.35086814 0.090691142 2.014504
0.33536831 0.090286158 2.006995
0.32092771 0.090143584 2.0052891
0.3071259 0.090175666 2.0074313
0.29302341 0.090118296 2.0075018
0.28084469 0.09067636 2.0213299
0.26382127 0.089646719 1.9994243
0.25030652 0.089761324 2.0031602
0.23593971 0.08956591 1.9998595
0.22239524 0.089677781 2.0034087
0.20819743 0.089523561 2.0009036
0.19298995 0.088882416 1.9873606
0.18055891 0.089519687 2.0025616
0.1643106 0.088213183 1.9738774
0.14174826 0.082974643 1.8564075
0.11674835 0.07512708 1.6799247
0.1010283 0.072179027 1.6138756
0.090122029 0.072365686 1.618517
0.079253353 0.072639607 1.6250809
0.066022463 0.070482023 1.5766736
0.049376171 0.063108057 1.41035
0.046302427 0.073719889 1.6503267
0.039283436 0.082917541 1.8583549
0.027858235 0.087208472 1.9554747
0.014816539 0.089730188 2.0125618
0.00096930226 0.089731015 2.0126157
-0.012865294 0.089642003 2.0105772
-0.026698314 0.089639917 2.010442
-0.040490065 0.089547999 2.008215
-0.054306194 0.089543059 2.0078917
-0.067581743 0.08882957 1.9914986
-0.077036761 0.084181853 1.8861792
-0.076267608 0.071315184 1.5952187
-0.082288541 0.067242108 1.5028856
-0.093018092 0.067498043 1.5082718
-0.1033511 0.067443646 1.5066048
-0.11292069 0.066946596 1.4949056
-0.12290421 0.066757716 1.4901171
-0.13326789 0.066788584 1.4902385
-0.14401829 0.066994898 1.4942669
-0.1544231 0.067023583 1.4942431
-0.16494258 0.067095317 1.4951408
-0.17536615 0.067121856 1.4949727
-0.18616092 0.0672796 1.4977071
-0.19609977 0.067127682 1.4934298
-0.20720848 0.067371383 1.4979956
-0.21710813 0.067217462 1.4935803
-0.22785126 0.067326799 1.4950277
-0.23831268 0.067347005 1.4944249
-0.24958903 0.067586184 1.4986786
-0.25941157 0.067428306 1.4939866
-0.26970959 0.067401432 1.4921818
-0.27999529 0.067373566 1.4903067
-0.29007879 0.067300804 1.4873805
-0.30268413 0.067797929 1.4971218
-0.31239542 0.067635253 1.4920865
-0.32330883 0.067734949 1.4928503
-0.33446378 0.067877434 1.4945108
-0.34498879 0.067887284 1.4931672
-0.35505295 0.067808554 1.4898055
-0.36579603 0.067860268 1.4892888
-0.378005 0.06817349 1.4945101
-0.38830933 0.068135537 1.4918947
-0.39910814 0.068184078 1.4911402
-0.4096534 0.068187907 1.4893441
-0.41938695 0.068059817 1.4845877
-0.43100491 0.068236329 1.4864904
-0.44323397 0.068498865 1.4902202
-0.4575564 0.069065146 1.5005478
-0.46761388 0.068976536 1.4964318
-0.47854337 0.069017649 1.495106
-0.48732087 0.068753332 1.4870487
-0.50262177 0.069401041 1.4988536
-0.51007861 0.068961211 1.4868677
-0.52362311 0.069345579 1.4927825
-0.53894508 0.069945239 1.5032883
-0.54898876 0.069849767 1.4986266
-0.55969024 0.069840059 1.4957709
-0.57002771 0.069786154 1.4919046
-0.58537829 0.070336603 1.5010149
-0.65690684 0.077494234 1.6522043
-0.77188694 0.089430183 1.9053749
-0.79185987 0.090132698 1.9166802
-0.81742084 0.091436036 1.9407049
-0.83630496 0.091960937 1.947922
-0.85214794 0.092139512 1.9476378
-0.86560637 0.092058621 1.9417444
-0.88190132 0.092277132 1.9421331
-0.90866274 0.093566462 1.9650894
-0.92013979 0.093266211 1.954275
-0.93280345 0.093093619 1.9461013
-0.94932061 0.093305022 1.9459375
-0.96632612 0.093557388 1.9465333
-0.97757089 0.093252793 1.9353731
-1.0005103 0.094056435 1.9472914
-1.0227454 0.094771817 1.9572089
-1.0372481 0.094760619 1.9518858
-1.0498428 0.094577841 1.9429311
-1.0666717 0.094776303 1.941789
-1.0820874 0.094845526 1.9378835
-1.1053479 0.095591307 1.9477845
-1.1139158 0.095063575 1.9314382
-1.1594752 0.097665444 1.9789817
-1.1742454 0.097640365 1.972648
-1.1920724 0.097866878 1.9713427
-1.2078621 0.097922556 1.96647
-1.2231199 0.097934276 1.9606217
-1.2224076 0.096682578 1.929278
-1.2465895 0.097406298 1.9376202
-1.2752959 0.09846206 1.952425
-1.2932864 0.09867537 1.9502293
-1.3118657 0.098928124 1.9487073
-1.3349741 0.099512666 1.9536358
1.3925835 0.086651094 2.0045574
1.3841701 0.087116756 2.0224197
1.3633511 0.086803384 2.0219877
1.3365575 0.086097792 2.0121853
1.3235747 0.086275637 2.0230627
1.3018944 0.085884012 2.0203846
1.3005567 0.086841166 2.0496364
1.277285 0.08633928 2.0441422
1.2515521 0.085656419 2.0341582
1.2342623 0.085541435 2.0376191
1.2205524 0.085674793 2.0469565
1.1916864 0.084733956 2.0302939
1.1879675 0.085579947 2.0566783
1.1579198 0.084526502 2.0369747
1.1461531 0.084797114 2.0492818
1.1309241 0.084815487 2.055382
1.1095228 0.08436504 2.0499227
1.0943257 0.084380314 2.0557516
1.0698912 0.083673559 2.04373
1.0515907 0.083433039 2.0430379
1.0360471 0.083407387 2.0475469
1.0200545 0.083344288 2.0510409
1.0053769 0.083388351 2.0571077
0.99668938 0.083938241 2.0756977
0.97084814 0.083038099 2.0580609
0.94237947 0.081881128 2.0338111
0.93321496 0.082391188 2.051163
0.91211575 0.081847012 2.0419891
0.89597666 0.081737228 2.043618
0.88025546 0.081662484 2.0460389
0.86609256 0.081732221 2.0520265
0.84847528 0.081472702 2.0495958
0.83280402 0.081394129 2.0516543
0.81457895 0.081058562 2.0470867
0.79790282 0.080867581 2.0460937
0.78411722 0.080967858 2.0524426
0.76158804 0.080151796 2.0352781
0.75060385 0.080542617 2.0488942
0.73444653 0.080382861 2.0483325
0.72425038 0.080882303 2.0646327
0.70098293 0.079912387 2.0430493
0.68625528 0.079895496 2.0458975
0.67152429 0.079877473 2.0486395
0.65739596 0.079931922 2.0531807
0.6376127 0.079285666 2.03949
0.6180498 0.078637443 2.0256259
0.60323781 0.078577265 2.0269246
0.59037483 0.078774184 2.0348382
0.56609559 0.077419654 2.0022597
0.54044741 0.075803772 1.9626985
0.50971907 0.073371746 1.9016361
0.49286175 0.072859019 1.8905586
0.51222938 0.077821426 2.0227792
0.49379796 0.077160373 2.007782
0.48503932 0.078016356 2.0324981
0.46388879 0.076870635 2.0045936
0.45073858 0.077020541 2.0106385
0.435635 0.076835565 2.0078056
0.42242482 0.076983348 2.0136657
0.40718558 0.076758794 2.0096426
0.39373413 0.076867267 2.0143356
0.38060513 0.077049032 2.0209036
0.36492863 0.076709248 2.0136178
0.34936956 0.076368019 2.0062129
0.33589017 0.076471917 2.0105207
0.32534602 0.077282056 2.0334909
0.30910462 0.076750986 2.0208428
0.29348078 0.076330125 2.0110362
0.27841473 0.076019607 2.0040817
0.26475438 0.076080486 2.0069251
0.25143689 0.076252066 2.0126507
0.23677544 0.076012306 2.0073712
0.22208823 0.075733915 2.0009933
0.20893563 0.07597664 2.0084252
0.19262508 0.07502389 1.9839416
0.17995289 0.075450845 1.9961578
0.16523103 0.075017944 1.9853877
0.15202244 0.07525596 1.9924473
0.13508691 0.073513076 1.9465812
0.10981856 0.06635128 1.7559593
0.090075679 0.06116667 1.617975
0.078923501 0.061174136 1.6185516
0.067726113 0.061143227 1.6180537
0.056746587 0.061335605 1.6234713
0.047361843 0.06376981 1.6887497
0.040962588 0.07311894 1.9388037
0.02875055 0.076112643 2.0189738
0.014861766 0.076114573 2.0191226
0.00096939574 0.075890973 2.0131807
-0.012872879 0.075853057 2.012141
-0.026793052 0.076075613 2.0180011
-0.040513966 0.075773574 2.0097783
-0.054311432 0.075732 2.0084555
-0.068159901 0.075763963 2.0090365
-0.077569954 0.071683556 1.8996898
-0.077409156 0.061212458 1.6196244
-0.082350522 0.056908082 1.5043068
-0.092661746 0.056863002 1.502712
-0.10315795 0.056929089 1.5040385
-0.11300601 0.056658123 1.4963237
-0.12332248 0.056647725 1.4955175
-0.13389729 0.056748457 1.497627
-0.14441161 0.056810908 1.4986678
-0.1542345 0.056611214 1.4926769
-0.16484985 0.056709204 1.4945697
-0.17457619 0.056507859 1.4884466
-0.18581261 0.056790493 1.4951553
-0.19650468 0.056885697 1.4968255
-0.20627941 0.056719102 1.4914894
-0.21727099 0.056887034 1.4949927
-0.22653148 0.056607071 1.4865584
-0.23802359 0.05688487 1.4928747
-0.24831241 0.056863878 1.4912157
-0.26028204 0.057214051 1.4993354
-0.27026272 0.05711687 1.4955572
-0.27983877 0.056944568 1.4897482
-0.29010582 0.056920186 1.4878041
-0.30271229 0.057340618 1.4975485
-0.31201887 0.057128783 1.4905552
-0.3222917 0.05710182 1.4883913
-0.33276603 0.057111144 1.4871329
-0.34502059 0.057416148 1.4935946
-0.35554436 0.05742364 1.4921776
-0.36582956 0.057393275 1.4897162
-0.37682638 0.057473134 1.4900924
-0.38884327 0.057700038 1.4942594
-0.40016797 0.057814963 1.4954338
-0.41126537 0.057891998 1.4955593
-0.42292237 0.058041971 1.4975282
-0.43379986 0.058080245 1.4965259
-0.44299185 0.057896413 1.4896935
-0.45499924 0.058080524 1.4923726
-0.4667702 0.058226768 1.4940026
-0.47526702 0.057967164 1.4850621
-0.48736435 0.058148447 1.4874824
-0.49826005 0.058181681 1.4860131
-0.51237261 0.058581334 1.4939266
-0.52399719 0.058686003 1.494164
-0.53665376 0.058899745 1.4971374
-0.54699367 0.05885582 1.4934307
-0.56112772 0.059213977 1.4999609
-0.57219845 0.059241433 1.4979539
-0.58435017 0.059377726 1.4986625
-0.65183765 0.065029532 1.6396767
-0.76748383 0.075197816 1.8948131
-0.78889781 0.07593821 1.9098526
-0.80477899 0.07612966 1.9108542
-0.81797427 0.07606484 1.9052908
-0.85262001 0.077963628 1.949138
-0.86487335 0.077786125 1.9404998
-0.87910497 0.077789403 1.9363394
-0.89290833 0.077755287 1.9311656
-0.92317981 0.079133868 1.9612048
-0.94017899 0.079349823 1.9620346
-0.96333247 0.080070756 1.9753153
-0.9721489 0.079596274 1.958782
-0.98347473 0.0793382 1.9475805
-0.99469745 0.079079427 1.9363139
-1.0219139 0.080081381 1.9560366
-1.0364054 0.080071971 1.9507197
-1.0664568 0.081248246 1.9743611
-1.0681983 0.080265053 1.9450247
-1.1122012 0.082441032 1.9926888
-1.1235816 0.082173102 1.9806153
-1.1368383 0.082047626 1.971947
-1.1520427 0.082064189 1.9666442
-1.182986 0.083187051 1.9878994
-1.1896056 0.082592703 1.9676816
-1.2084873 0.082853921 1.9679483
-1.2148123 0.082258433 1.9476498
-1.2278316 0.082125247 1.9383566
-1.2585256 0.083163202 1.9567757
-1.2721471 0.083061717 1.9480214
-1.2736282 0.082179286 1.920802
-1.2920017 0.08239466 1.9194194
-1.3322883 0.083986469 1.9501356
1.3949553 0.070959501 2.0083947
1.3809023 0.071051411 2.0180063
1.3540018 0.070476733 2.0084102
1.3493068 0.071057923 2.0319231
1.3280255 0.070769101 2.0303125
1.3030661 0.070274949 2.022609
1.2868034 0.070243485 2.0281899
1.2731638 0.070356198 2.0378885
1.2662271 0.070846774 2.0585842
1.2276572 0.069557458 2.027019
1.2211497 0.07007499 2.0483549
1.1781895 0.068486996 2.0075045
1.1905389 0.070114598 2.0615513
1.1614408 0.069312088 2.0435989
1.1457505 0.069298849 2.0489392
1.1276523 0.069137618 2.0497723
1.101562 0.068475112 2.0354812
1.0860002 0.068457641 2.0403707
1.0778016 0.06891045 2.0593328
1.0566677 0.06853734 2.0533514
1.0374672 0.068280533 2.0507483
1.021455 0.068229042 2.0542512
1.0102476 0.06850177 2.0675218
0.98042089 0.067500979 2.0419331
0.96074706 0.06717886 2.0368528
0.94370025 0.067033142 2.0370467
0.9279353 0.066975236 2.039834
0.91137165 0.066856846 2.0406721
0.90162444 0.067242883 2.0569594
0.877572 0.066557057 2.040113
0.86306626 0.06658411 2.0451603
0.85081607 0.06678918 2.0556509
0.83435863 0.066665396 2.0558696
0.8131699 0.066152237 2.0438726
0.7994042 0.066235125 2.0503259
0.78275734 0.066077918 2.0492079
0.76512337 0.065829746 2.0451472
0.7366569 0.064621598 2.01088
0.73047966 0.06535951 2.0375314
0.7174027 0.06549757 2.0453117
0.70071262 0.065304644 2.0425997
0.6780982 0.064539671 2.0217357
0.67157423 0.065306157 2.0491354
0.6501804 0.064628586 2.0308142
0.63469857 0.064521253 2.0304358
0.62388891 0.064894922 2.0452473
0.60611409 0.064544648 2.0369987
0.59014273 0.064374022 2.0343668
0.57693732 0.064504132 2.0412362
0.55787247 0.063969038 2.0268073
0.53055894 0.062435146 1.9803368
0.53118026 0.064194478 2.0390723
0.51762742 0.064290889 2.0445888
0.4969162 0.063478366 2.020884
0.48254278 0.063451521 2.0222828
0.46727973 0.063302532 2.0196834
0.44816887 0.062606737 1.9994076
0.43945515 0.063365318 2.0258703
0.42429075 0.063213296 2.0229502
0.40938428 0.063090563 2.0208979
0.39224213 0.062602289 2.0069621
0.38118559 0.063085064 2.0243289
0.3667261 0.063020103 2.0239308
0.35194969 0.062893324 2.0214603
0.33918577 0.063130587 2.0307167
0.31941581 0.062027909 1.9964575
0.30897895 0.062719829 2.0203307
0.29608229 0.062954418 2.0293157
0.28048399 0.062609322 2.0194056
0.26594287 0.062476393 2.0163164
0.25280938 0.062677749 2.0240352
0.23725899 0.062268365 2.0118136
0.22352824 0.062315322 2.0143785
0.20854175 0.061995208 2.0049195
0.19513227 0.062131714 2.0102749
0.18174821 0.062297832 2.016537
0.16557324 0.061455559 1.9898373
0.15309089 0.06195553 2.0068674
0.13791226 0.061355252 1.9879214
0.12448335 0.061486866 1.9928061
0.10389525 0.05767671 1.8688565
0.080858469 0.051237095 1.6588657
0.067897163 0.050111953 1.6224276
0.057269879 0.050605386 1.6388353
0.051974494 0.057210311 1.8550035
0.041405689 0.060422696 1.9602424
0.028724616 0.062167358 2.0174468
0.01483376 0.062107805 2.0155964
0.00097233918 0.062230635 2.0196486
-0.012886605 0.062077381 2.0146105
-0.026821539 0.062259339 2.0204718
-0.040697116 0.062226333 2.019242
-0.054369409 0.061978389 2.0109234
-0.067593671 0.061423898 1.9925238
-0.078021079 0.058943439 1.9111199
-0.078738704 0.050901815 1.6479596
-0.082248978 0.04646603 1.5026635
-0.09230385 0.046307001 1.4970787
-0.10262466 0.046299972 1.4964136
-0.11264255 0.046170074 1.4916912
-0.1234136 0.046344787 1.4968648
-0.13329129 0.04618293 1.4910094
-0.14375889 0.046234041 1.4920552
-0.15445015 0.046345413 1.4950166
-0.16464603 0.046303496 1.4929341
-0.17539673 0.04641334 1.4957471
-0.18497322 0.046217542 1.4885629
-0.19664903 0.046539258 1.4981693
-0.20670234 0.046463974 1.494812
-0.2181419 0.04669261 1.5012816
-0.22774166 0.04652454 1.4948162
-0.23804229 0.046508078 1.4932275
-0.24800685 0.046430059 1.489596
-0.26030242 0.046777204 1.4996903
-0.26957995 0.046576124 1.4919754
-0.28095663 0.046739195 1.4959977
-0.29012835 0.046536908 1.488157
-0.30253968 0.046850279 1.4969239
-0.31224582 0.04673779 1.4918882
-0.3231543 0.04680673 1.4926547
-0.33495262 0.046996206 1.497246
-0.34482434 0.046912059 1.4929763
-0.35511282 0.046887901 1.4905882
-0.36798182 0.047196094 1.4988135
-0.3783111 0.047170464 1.4962667
-0.38638011 0.046872031 1.4849378
-0.39994249 0.047238156 1.4948263
-0.40972173 0.047150128 1.4901317
-0.42349246 0.047514334 1.4998136
-0.43107632 0.047183562 1.4872785
-0.44358942 0.047395233 1.4919704
-0.45445582 0.047425192 1.4908192
-0.46710032 0.047635119 1.4953191
-0.47771659 0.047633469 1.493045
-0.48555094 0.047360539 1.4821386
-0.49892652 0.04762822 1.4882717
-0.50984049 0.04765464 1.4867187
-0.5243637 0.048010442 1.4954731
-0.53535664 0.048035234 1.4937354
-0.54805577 0.048209138 1.4966158
-0.55735141 0.048082728 1.4900179
-0.57259381 0.048464421 1.4992574
-0.58439296 0.048545931 1.4990319
-0.6365037 0.051912222 1.6010194
-0.76642209 0.061390541 1.8924987
-0.78933412 0.062115215 1.9112506
-0.81254303 0.062837824 1.9297751
-0.81725043 0.062129382 1.9039255
-0.84870285 0.063443869 1.9404545
-0.86493599 0.063596189 1.940985
-0.8812207 0.063747309 1.9413818
-0.89422286 0.063659951 1.9343766
-0.91309613 0.063986756 1.9399623
-0.93338042 0.064400852 1.9480861
-0.94598836 0.064280756 1.9398245
-0.95411676 0.063864425 1.9225122
-0.98399299 0.064894624 1.9489701
-1.002484 0.065154955 1.9519489
-1.0192279 0.065295912 1.9512131
-1.0304215 0.065082356 1.9397256
-1.0504811 0.065426916 1.9449145
-1.0735353 0.06594599 1.955183
-1.094849 0.06634555 1.9617255
-1.1202307 0.066977672 1.9750327
-1.1165739 0.065879814 1.9368867
-1.1486101 0.066889085 1.9611092
-1.1754487 0.067573629 1.9755102
-1.1922622 0.067671835 1.9724863
-1.1940136 0.066923365 1.9445664
-1.2285745 0.068009607 1.9702673
-1.2162215 0.066504039 1.9202527
-1.2596929 0.068050496 1.9589841
-1.2570231 0.067097187 1.9250537
-1.2852559 0.067796417 1.9388572
-1.281551 0.066814288 1.9041426
-1.3082731 0.067422837 1.9150829
1.401278 0.055370182 2.0178869
1.3843532 0.055329654 2.023406
1.3540812 0.054748543 2.0088439
1.3433346 0.054952487 2.0231774
1.338989 0.055426262 2.0475194
1.3101423 0.054885026 2.0339911
1.2932696 0.054838341 2.0387738
1.2679696 0.054428741 2.0298235
1.2564033 0.054605823 2.0428064
1.2349381 0.054351691 2.0394425
1.2247838 0.054595247 2.0548079
1.2079405 0.054543093 2.0588965
1.1930929 0.054580871 2.066318
1.1688745 0.054185256 2.0570855
1.1472719 0.053901844 2.0519865
1.1210103 0.053388793 2.0379112
1.1011524 0.053170715 2.0350196
1.0785918 0.052814167 2.0266457
1.064039 0.052845135 2.0331385
1.0517267 0.052989896 2.0439768
1.0388726 0.053111203 2.0538461
1.0175321 0.052795805 2.0465991
1.0037622 0.052869614 2.0544469
0.97918719 0.052367825 2.0396376
0.96758354 0.052554917 2.0517502
0.95210654 0.052534223 2.0556226
0.93909514 0.052651104 2.0648446
0.91547507 0.052167285 2.0502195
0.896891 0.051959109 2.0463684
0.87683791 0.05165733 2.0386796
0.86041301 0.051562596 2.0391109
0.84174907 0.051328007 2.0338633
0.83216608 0.051648661 2.0507112
0.81762314 0.051667534 2.055434
0.79151416 0.050942697 2.0302165
0.78315741 0.051354632 2.0505445
0.77456313 0.051766511 2.0708523
0.75309408 0.051317204 2.0563726
0.73119295 0.050819919 2.0398123
0.72533256 0.051439974 2.0683694
0.69978744 0.050660755 2.0401568
0.6860311 0.050720003 2.0458419
0.67161417 0.050731916 2.0495322
0.6571815 0.050743144 2.0531209
0.64184505 0.050683521 2.0537436
0.6279816 0.050740141 2.0590372
0.60473508 0.050023284 2.0325963
0.59073132 0.050054707 2.0366786
0.57616216 0.050038587 2.0387399
0.54763317 0.048778225 1.9895836
0.54189116 0.049534623 2.023227
0.53396487 0.050126776 2.0501082
0.51790261 0.049966801 2.045948
0.50002736 0.049617808 2.0338953
0.48833099 0.049879462 2.0469882
0.46797946 0.049246144 2.02299
