# .PCD v0.7 - Point Cloud Data file format
VERSION 0.7
FIELDS x y z
SIZE 4 4 4
TYPE F F F
COUNT 1 1 1
WIDTH 1444
HEIGHT 1
VIEWPOINT 0 0 0 1 0 0 0
POINTS 1444
DATA ascii
0.32684854 -0.49755463 1.0449139
0.32170132 -0.50194073 1.0558794
0.32127619 -0.5141077 1.083463
0.31397638 -0.51562393 1.0882823
0.31853935 -0.537229 1.1361283
0.30490226 -0.52848595 1.1189197
0.30443105 -0.54271543 1.15099
0.29410747 -0.53970057 1.145987
0.28865653 -0.54571539 1.1603789
0.2794269 -0.54473871 1.1596767
0.27472106 -0.55280209 1.1784486
0.27193385 -0.56539088 1.2069995
0.26778817 -0.57592416 1.2311158
0.26423019 -0.58851695 1.2596964
0.25045875 -0.5784514 1.2391438
0.24404897 -0.58526814 1.2551516
0.22964902 -0.57270271 1.2290251
0.22104341 -0.57414347 1.2332644
0.211171 -0.57227618 1.2302629
0.2031033 -0.57535201 1.2379774
0.19326545 -0.57346731 1.2348419
0.18308705 -0.57033396 1.2289308
0.18144821 -0.59486854 1.2833716
0.16481376 -0.57023555 1.23042
0.15652245 -0.57327384 1.2378465
0.14728208 -0.57299793 1.2379862
0.13884592 -0.57602173 1.2453021
0.12900832 -0.57324809 1.2398845
0.12020876 -0.57501549 1.2443645
0.11159084 -0.57801652 1.251507
0.10104376 -0.57066453 1.2359085
0.090996832 -0.5649575 1.2238607
0.080110148 -0.5522036 1.1962969
0.071981266 -0.5576542 1.2086301
0.062834471 -0.55564517 1.2045485
0.053911928 -0.55528408 1.2040402
0.04426147 -0.54580426 1.1834589
0.035965111 -0.55246663 1.1982896
0.026662124 -0.54296952 1.177577
0.018238612 -0.55085915 1.195022
0.0092648584 -0.54134536 1.1741832
0.00061260164 -0.54714853 1.1869599
-0.0081327632 -0.54673094 1.1860237
-0.016864523 -0.54630542 1.1850278
-0.025698761 -0.54835695 1.1894319
-0.034259688 -0.54501653 1.1819466
-0.043007053 -0.54539561 1.1825911
-0.050666071 -0.53417236 1.1577125
-0.056588557 -0.51052177 1.1055167
-0.062961914 -0.49639064 1.0742023
-0.071425095 -0.50005561 1.081918
-0.086380899 -0.54386026 1.1776425
-0.088988245 -0.50901592 1.1007915
-0.10098258 -0.52920628 1.1445932
-0.11250753 -0.54400384 1.1765006
-0.11565586 -0.51908135 1.1213511
-0.12887014 -0.53964913 1.1657842
-0.13736573 -0.53911513 1.1639649
-0.14628987 -0.54022694 1.1657026
-0.1567878 -0.54670233 1.1791137
-0.16161044 -0.53374982 1.1500429
-0.164702 -0.51666665 1.1119552
-0.17415889 -0.52022994 1.1188968
-0.18097557 -0.51594126 1.1086785
-0.18598862 -0.50710893 1.0885427
-0.19545496 -0.51064956 1.0953107
-0.22640511 -0.56778365 1.2184927
-0.24941824 -0.60137397 1.2902877
-0.25698602 -0.59661204 1.2787081
-0.24894373 -0.55724889 1.1921221
-0.25165486 -0.54384589 1.1618605
-0.24093655 -0.50328612 1.072893
-0.25152263 -0.5084123 1.0827572
-0.26058671 -0.51023734 1.085433
-0.26407647 -0.50136834 1.0650135
-0.27463952 -0.50605547 1.0737762
-0.28190514 -0.50457227 1.0692093
-0.27803618 -0.48379683 1.023194
-0.29095379 -0.4925651 1.0405953
-0.2984221 -0.49188891 1.0376856
-0.30816054 -0.49489334 1.0426084
-0.30334407 -0.47495788 0.99850208
-0.31531343 -0.48163682 1.011212
-0.31733814 -0.47316906 0.99160367
-0.32667154 -0.4757396 0.9954676
-0.33981085 -0.48360974 1.0105171
-0.35905644 -0.49962625 1.0427246
-0.35392016 -0.48175675 1.0031341
-0.36689037 -0.48877019 1.0161505
-0.37569958 -0.49006331 1.0170228
-0.38326839 -0.48971874 1.014401
-0.386922 -0.48448551 1.0014806
-0.39438179 -0.48413011 0.99878043
-0.40114948 -0.48295519 0.99432975
-0.41234168 -0.4870508 1.0008459
-0.41245782 -0.47815433 0.98023444
-0.41977176 -0.47777408 0.97735596
-0.43467391 -0.4858897 0.99205703
-0.44613233 -0.48993841 0.99823087
-0.45957917 -0.49599326 1.0084684
-0.4625428 -0.49072078 0.99527925
-0.48700014 -0.50804693 1.0285349
-0.53476286 -0.54871774 1.109437
-0.53905618 -0.54419166 1.0974677
-0.56143194 -0.55777407 1.1224393
-0.64176339 -0.62760901 1.2616934
-0.6741212 -0.64909989 1.3020543
-0.76466113 -0.7251116 1.4525086
-0.77935165 -0.72800034 1.4544581
-0.8737427 -0.80415708 1.6038494
-0.89275211 -0.80973244 1.6106083
-0.89492345 -0.80009449 1.5867749
-0.92442065 -0.81481433 1.6116235
-0.83366621 -0.72460455 1.4273189
-0.94098127 -0.80666596 1.5859959
-0.92693931 -0.78387988 1.5361205
-0.96603853 -0.80604202 1.5751501
-0.9353714 -0.7701754 1.4996938
-0.99097937 -0.80535585 1.5639426
-0.98686552 -0.79172117 1.5322675
-0.95586735 -0.757137 1.4598818
-0.87788516 -0.68666798 1.3181847
-0.98633802 -0.76196533 1.4594923
-1.0886658 -0.83075041 1.5871991
-0.9663564 -0.72852516 1.3851738
-0.97514153 -0.72638917 1.3762038
-0.97797811 -0.71992439 1.3589445
-0.98330307 -0.71542072 1.3454502
nan nan nan
0.96253026 -0.69421959 1.2707162
1.0280863 -0.7500177 1.3792528
1.0543406 -0.77810764 1.4367881
1.0904597 -0.81422347 1.5096815
1.0722252 -0.81013143 1.5074201
1.0634835 -0.81319922 1.5185511
1.0768508 -0.83345383 1.562194
1.1064893 -0.86695683 1.6312002
1.1164559 -0.88569087 1.6724265
1.1473551 -0.92171478 1.7468808
1.1500348 -0.93570137 1.7794446
1.1249486 -0.92716676 1.7687718
1.0957413 -0.91496629 1.7508472
1.0887902 -0.92127281 1.7685416
1.0684508 -0.91626835 1.7642699
1.0733477 -0.93306488 1.8023398
1.0377872 -0.91466969 1.7717701
1.0308462 -0.92133605 1.7900286
0.97313339 -0.88216674 1.7182143
0.95981163 -0.88268757 1.7241114
0.95168322 -0.88806993 1.7395515
0.84972906 -0.80475301 1.5792212
0.83916569 -0.80677766 1.587495
0.74960005 -0.73174423 1.4422265
0.72315085 -0.71694303 1.416415
0.68901592 -0.693932 1.3739581
0.6247912 -0.63938677 1.2679223
0.63534987 -0.66083878 1.3142042
0.57012081 -0.60286456 1.2004539
0.55654848 -0.59847569 1.1944265
0.49058867 -0.53663146 1.0718963
0.47775283 -0.53174806 1.0644246
0.45526126 -0.5157516 1.0342487
0.45035887 -0.51946241 1.0440832
0.43552664 -0.51164514 1.030346
0.42402083 -0.50751466 1.0240513
0.41094336 -0.50130832 1.0134205
0.39473021 -0.49095872 0.994178
0.39086619 -0.49586222 1.0062385
0.37535679 -0.48589081 0.98759228
0.36796716 -0.48623407 0.99016076
0.36393407 -0.49112153 1.002107
0.36845475 -0.50801486 1.0389675
0.35128853 -0.49509314 1.0139221
0.34314105 -0.49458399 1.014595
0.33106604 -0.48825896 1.0030926
0.31972992 -0.48274884 0.99321073
0.31178072 -0.4822087 0.99365336
0.3085624 -0.48914108 1.0097141
0.28901315 -0.46987751 0.97079796
0.28676006 -0.47846067 0.99025613
0.28180864 -0.4828833 1.0009698
0.27293247 -0.48063964 0.99762005
0.2615909 -0.47380254 0.9845252
0.25873119 -0.48237759 1.0039227
0.25408199 -0.48803413 1.0171527
0.24820036 -0.49160233 1.025949
0.24220444 -0.49516657 1.0347157
0.23293063 -0.49204364 1.0292628
0.22145572 -0.48389637 1.0130771
0.21484965 -0.48618636 1.0190232
0.21102089 -0.49516243 1.0391806
0.20673768 -0.50371987 1.0584443
0.20301062 -0.51436913 1.0821664
0.19434746 -0.51287705 1.0799589
0.18496764 -0.50928247 1.0732112
0.18253919 -0.52536881 1.1085142
0.17182039 -0.5179891 1.093591
0.16106521 -0.50975895 1.0767812
0.15509759 -0.51661247 1.0922462
0.14449824 -0.50794291 1.0743867
0.13901681 -0.51730216 1.0951684
0.13451393 -0.53169417 1.1267455
0.12507644 -0.52719676 1.1177175
0.11661538 -0.52646822 1.1167431
0.10834842 -0.52657169 1.117516
0.10015658 -0.52708751 1.1191362
0.091507949 -0.52507544 1.1152732
0.084653072 -0.53397846 1.134879
0.07589718 -0.53153139 1.129999
0.067270681 -0.52949619 1.1259625
0.059455816 -0.5341773 1.1363641
0.049966596 -0.52287954 1.1122686
0.04157047 -0.5208199 1.1080498
0.034800973 -0.54313469 1.1563754
0.024931006 -0.51583642 1.0976229
0.016673772 -0.51165146 1.088694
0.0085623451 -0.50829971 1.0815226
0.00056710036 -0.51461041 1.0951637
-0.0075159362 -0.5133459 1.092418
-0.015226804 -0.50114298 1.0660285
-0.022921601 -0.4969213 1.0568256
-0.030561073 -0.49395388 1.0502925
-0.038726471 -0.49896646 1.060937
-0.04634263 -0.4964053 1.055205
-0.054794475 -0.5022431 1.0675471
-0.062694579 -0.50218898 1.0671434
-0.070237525 -0.49960655 1.0612526
-0.07677862 -0.49113572 1.0426415
-0.084786966 -0.49274176 1.0457058
-0.093633272 -0.49854025 1.0577538
-0.10001043 -0.49131185 1.0417236
-0.10707975 -0.48827747 1.0346894
-0.11434813 -0.48649645 1.0303181
-0.12134839 -0.48386994 1.0240967
-0.12781706 -0.4795593 1.0142283
-0.13699031 -0.48531085 1.0259241
-0.14446709 -0.48476219 1.024057
-0.14863604 -0.47372609 0.99968165
-0.15701452 -0.47651994 1.0049156
-0.1660566 -0.48098111 1.0136707
-0.1690366 -0.46826002 0.98564106
-0.22698195 -0.60250276 1.2715305
-0.22603479 -0.57592171 1.2136641
-0.25175321 -0.61671281 1.2994999
-0.26171702 -0.61731392 1.299516
-0.25901154 -0.58905876 1.2380767
-0.23772219 -0.5219534 1.0941286
-0.22162533 -0.47035214 0.98336285
-0.23462223 -0.48183653 1.0066088
-0.24335663 -0.48412189 1.0102721
-0.26037613 -0.5022499 1.0474101
-0.26637179 -0.49867186 1.0385395
-0.26927355 -0.48967233 1.0182043
-0.279668 -0.49442005 1.0268588
-0.28391188 -0.4883315 1.0126346
-0.29218742 -0.48931572 1.0132753
-0.30278257 -0.49403411 1.0217098
-0.30280647 -0.48169965 0.99432999
-0.31154671 -0.48349488 0.99656218
-0.32280344 -0.48901677 1.0065317
-0.32945794 -0.48747185 1.001681
-0.33892736 -0.49006748 1.0054262
-0.34524697 -0.48809451 0.99961334
-0.35569263 -0.49191368 1.0057991
-0.36900061 -0.49944425 1.0196086
-0.37254763 -0.49372467 1.0059129
-0.38132587 -0.49502999 1.0067252
-0.39533085 -0.50293231 1.0210829
-0.39699739 -0.49513593 1.0030465
-0.41291571 -0.5050723 1.0214354
-0.43153068 -0.51786941 1.0455625
-0.43339846 -0.51046669 1.0282422
-0.48625869 -0.56230021 1.1317965
-0.51207978 -0.58157176 1.1685652
-0.59478384 -0.6636337 1.3326648
-0.65972912 -0.72339016 1.4507625
-0.69031793 -0.74408615 1.4892666
-0.74624574 -0.79094821 1.5803064
-0.77804053 -0.8111133 1.6171048
-0.80404311 -0.82468611 1.6404071
-0.83326674 -0.841079 1.6691573
-0.85022795 -0.8447752 1.6723105
-0.87103391 -0.85211873 1.6826264
-0.85103172 -0.8199231 1.6142133
-0.89095002 -0.84555721 1.6607043
-0.91943157 -0.85974222 1.6842217
-0.9042446 -0.83327442 1.627372
-0.92533404 -0.84051502 1.6370147
-0.83530325 -0.74803984 1.4510314
-0.93600398 -0.82656705 1.600288
-0.93265152 -0.81231344 1.567758
-0.94767135 -0.81423074 1.5667515
-0.94036043 -0.79716653 1.5288874
-0.97444612 -0.81518257 1.5589128
-0.92469853 -0.76351035 1.4544957
-0.97949272 -0.79837513 1.5167186
-0.96790498 -0.77893472 1.4745733
-1.0137752 -0.80564243 1.5205952
-0.9945522 -0.78059995 1.4678836
-1.0597297 -0.82160425 1.5405098
-0.97530746 -0.74703401 1.394428
-0.98576808 -0.74605012 1.3876575
-0.9743371 -0.72871649 1.3502061
-0.95271242 -0.70425093 1.2996168
-0.97606313 -0.71321207 1.3114965
0.87637293 -0.64203 1.1524154
nan nan nan
0.98433721 -0.73788112 1.3367079
1.0499104 -0.79628795 1.4490156
1.0679728 -0.81962168 1.4973058
1.0691918 -0.83043522 1.522653
1.1119004 -0.87412953 1.6091895
1.1074212 -0.88134718 1.6281954
1.1385654 -0.91745019 1.7012767
1.141719 -0.9316265 1.7335763
1.148893 -0.94948858 1.7729231
1.13164 -0.94736499 1.7746533
1.1100854 -0.94153684 1.7692648
1.0967685 -0.94263357 1.7769028
1.0951593 -0.95395809 1.8039883
1.0569675 -0.93329048 1.7699327
1.0546677 -0.94418144 1.796118
1.0484132 -0.95178872 1.8160348
1.0222532 -0.94128412 1.8010116
1.0113719 -0.94474751 1.8128306
1.0003719 -0.94820035 1.8245928
0.97423255 -0.9371922 1.8081796
0.94797039 -0.925731 1.7906935
0.94038069 -0.93243217 1.8085437
0.92723364 -0.93374604 1.8158237
0.90998048 -0.93090123 1.8148661
0.88800508 -0.92305607 1.8039513
0.83637333 -0.88362217 1.7304738
0.76266629 -0.81916487 1.60699
0.75939018 -0.82945406 1.6312231
0.69621897 -0.77355003 1.5237763
0.65274441 -0.7379545 1.4562619
0.61937076 -0.71271271 1.4090652
0.58067781 -0.68032199 1.347272
0.54013509 -0.64452589 1.2783115
0.49067494 -0.59653944 1.1844782
0.48281235 -0.59825337 1.1903716
0.45169327 -0.57065302 1.137031
0.4174889 -0.53797454 1.0731505
0.42634737 -0.5605855 1.1210598
0.39888528 -0.53538752 1.0719943
0.39729029 -0.54457551 1.0926646
0.37741277 -0.52855808 1.0619811
0.36564696 -0.52344227 1.0534009
0.34828252 -0.50989759 1.0275034
0.33132109 -0.49632776 1.0014215
0.33371609 -0.51179844 1.0348004
0.31471148 -0.49440426 1.0006955
0.30408606 -0.48963395 0.99242514
0.29820019 -0.49244627 0.99971694
0.28973341 -0.49103221 0.99826211
0.27645102 -0.48116049 0.97927606
0.27078974 -0.48437354 0.98728198
0.2673254 -0.4918116 1.004025
0.2580452 -0.48867258 0.99881738
0.25232843 -0.49229607 1.0076073
0.24355043 -0.48998672 1.0040337
0.23177905 -0.48131269 0.98715299
0.22698639 -0.48703566 1.0002153
0.2222064 -0.49318051 1.0141466
0.2135437 -0.49083862 1.0103317
0.20673043 -0.49273172 1.0153275
0.20294406 -0.50226122 1.0362827
0.1965518 -0.50584447 1.0447743
0.18370654 -0.49242818 1.0175799
0.16610423 -0.46454459 0.95992386
0.1672456 -0.48893002 1.0119637
0.15930076 -0.48780656 1.0104055
0.15244697 -0.49007866 1.0159519
0.14489217 -0.49021727 1.0169746
0.13768876 -0.49162588 1.0206361
0.12875032 -0.48664159 1.0107832
0.11805482 -0.47398239 0.98468643
0.10874363 -0.46556994 0.96748781
0.10470802 -0.48015365 0.99880797
0.098666333 -0.48706594 1.0139108
0.091452748 -0.4888593 1.0181675
0.083889939 -0.48894116 1.0187701
0.076456547 -0.48986864 1.021125
0.068334095 -0.48609889 1.0135014
0.060967579 -0.48743853 1.016654
0.054072887 -0.49346295 1.0296929
0.046388958 -0.49308333 1.0291348
0.038615666 -0.49141675 1.0258119
0.030893572 -0.4897429 1.0224349
0.023040317 -0.48422202 1.0108665
0.015549592 -0.48466668 1.0119034
0.008087419 -0.48766422 1.0183151
0.00052769214 -0.48638836 1.0156316
-0.007176877 -0.49790496 1.0400279
-0.014459714 -0.48338875 1.009205
-0.021524785 -0.47398585 0.98918694
-0.029571297 -0.48548076 1.0134236
-0.036669675 -0.47990406 1.0014443
-0.044300292 -0.48199904 1.0056849
-0.054285608 -0.50541222 1.0550376
-0.06179785 -0.50279903 1.0492196
-0.069759339 -0.50401694 1.051476
-0.075526386 -0.49073127 1.0230024
-0.081458755 -0.48085254 1.0017179
-0.091576353 -0.49526444 1.0317727
-0.096672654 -0.48239124 1.0040984
-0.10394507 -0.48144546 1.0016083
-0.11138378 -0.481345 1.000868
-0.12144638 -0.49188447 1.0225428
-0.12792225 -0.48750988 1.0127026
-0.13591723 -0.48908976 1.0153855
-0.14445828 -0.49236384 1.0215949
-0.14928706 -0.48329154 1.0017718
-0.16100839 -0.49633345 1.028448
-0.16301279 -0.47959796 0.99246746
-0.17023981 -0.47901753 0.99042779
-0.22330515 -0.60207474 1.2477429
-0.24863821 -0.64348716 1.3334248
-0.25681031 -0.63900495 1.3227874
-0.26785254 -0.64173204 1.3272014
-0.27511761 -0.63553834 1.3129092
-0.25784901 -0.57505757 1.1852492
-0.22790973 -0.49130419 1.0092746
-0.23338975 -0.48685113 0.99885148
-0.25570747 -0.51670045 1.0597903
-0.25062883 -0.49105889 1.0052106
-0.2587826 -0.49209115 1.0060923
-0.26581916 -0.49100059 1.002529
-0.27281845 -0.4899039 0.99892002
-0.28050569 -0.49006841 0.99788648
-0.29564053 -0.50289285 1.0229527
-0.30097458 -0.4988153 1.0130559
-0.30852968 -0.49853078 1.0109531
-0.31928021 -0.50329733 1.0191954
-0.32305184 -0.49709758 1.0048603
-0.33167359 -0.49847606 1.0060549
-0.34434235 -0.5057357 1.019232
-0.35429633 -0.50877357 1.0236975
-0.40322244 -0.5664252 1.1394497
-0.43188217 -0.59375745 1.1930394
-0.48411056 -0.65167564 1.3085201
-0.49386269 -0.65121639 1.3051401
-0.55417937 -0.71611547 1.4339947
-0.58965194 -0.74699277 1.4935628
-0.63580102 -0.78994572 1.5771722
-0.64548999 -0.78683192 1.5676863
-0.67986798 -0.81337065 1.6177002
-0.71324474 -0.83776712 1.663134
-0.72383082 -0.83500022 1.6539855
-0.73211652 -0.82972336 1.6397874
-0.75107574 -0.83651668 1.6495941
-0.7181648 -0.78628868 1.5460382
-0.77912974 -0.83880264 1.6464335
-0.78749996 -0.83389944 1.6327866
-0.8323521 -0.86716223 1.6943717
-0.83530402 -0.85640889 1.668995
-0.8572138 -0.86512482 1.681852
-0.87561417 -0.87008506 1.6872042
-0.88189369 -0.86303318 1.6689934
-0.87081897 -0.83946276 1.6186336
-0.89900279 -0.85387397 1.6421866
-0.91789943 -0.85917407 1.6478815
-0.91819215 -0.84715796 1.6200236
-0.91857457 -0.83556223 1.5930403
-0.93051344 -0.83465487 1.5866362
-0.9437992 -0.83496398 1.5825058
-0.95331776 -0.83197695 1.572019
-0.96035522 -0.82693332 1.5575906
-0.96963602 -0.82392883 1.5470251
-0.94180208 -0.78987473 1.4777386
-0.95684153 -0.79219061 1.4773331
-0.95896655 -0.78389096 1.4569023
-0.97697014 -0.78861642 1.4608986
-0.94920409 -0.75673604 1.3964801
-0.95918781 -0.7553618 1.3891312
-0.84302312 -0.65587658 1.1999443
-0.97686899 -0.75095421 1.3712577
-0.9552511 -0.72568941 1.3198508
-0.98830247 -0.74206066 1.3450587
-0.94627124 -0.70232844 1.2675143
0.99620444 -0.74112993 1.3084308
1.0330204 -0.77734572 1.3783011
1.045172 -0.79562753 1.4163266
1.0615984 -0.81763172 1.4612595
1.0774058 -0.83967674 1.5064951
1.140548 -0.89958709 1.6208267
1.1272614 -0.89994103 1.6271541
1.0680358 -0.86317647 1.5654421
1.0950371 -0.89605129 1.6311805
1.111635 -0.92113733 1.6828973
1.1570985 -0.97109121 1.7808498
1.1329361 -0.96314996 1.7718948
1.1287133 -0.97217411 1.7943568
1.130401 -0.98659748 1.8269341
1.111455 -0.98315829 1.8261461
1.0842286 -0.9722001 1.811119
1.0659958 -0.96911401 1.810729
1.054163 -0.97184122 1.8212179
1.0270505 -0.9603588 1.8047315
1.0108182 -0.95886499 1.8070327
0.99678272 -0.95944172 1.8131911
0.97799593 -0.95539421 1.8104441
0.95803821 -0.95006287 1.8051219
0.94279981 -0.94931984 1.8084872
0.9115448 -0.93217444 1.7801771
0.90626556 -0.94147009 1.8026863
0.89711457 -0.94697833 1.8178804
0.86148161 -0.92425531 1.7782661
0.8500703 -0.92719501 1.788288
0.83209145 -0.92294955 1.7842546
0.82208294 -0.92755073 1.7974002
0.73681015 -0.84590501 1.6415722
0.72450322 -0.84661043 1.6466309
0.71002847 -0.84476238 1.646605
0.69314802 -0.83993077 1.6406152
0.67467993 -0.83295697 1.6302868
0.65269494 -0.82129002 1.6105449
0.58800113 -0.75437313 1.4810463
0.57269078 -0.74940479 1.4740921
0.56325209 -0.75207406 1.48225
0.54872906 -0.74792433 1.4767644
0.49729085 -0.69221371 1.3681343
0.48465806 -0.6892727 1.3647081
0.47181153 -0.68589067 1.3603222
0.45991939 -0.68377393 1.3584015
0.39558214 -0.60177714 1.1956573
0.39706361 -0.61838853 1.231093
0.37526107 -0.59866339 1.1932279
0.3495923 -0.57163185 1.1404192
0.33697855 -0.56510967 1.1289324
0.32530132 -0.55985665 1.1199362
0.30286455 -0.53530312 1.0716715
0.30358502 -0.55145246 1.1059974
0.28820136 -0.53843606 1.080981
0.25802606 -0.49620977 0.99629885
0.2499239 -0.49516216 0.99542218
0.24100843 -0.49238768 0.99097234
0.23971507 -0.50550795 1.0189958
0.22874701 -0.49842045 1.0056449
0.22409758 -0.50508678 1.02043
0.2137121 -0.4988392 1.0086936
0.20920482 -0.50635761 1.0251821
0.20121107 -0.50569046 1.0248245
0.19224542 -0.50243002 1.0190862
0.18543437 -0.5047636 1.0248253
0.1777909 -0.50493538 1.0260756
0.16810565 -0.49906126 1.0148073
0.15901244 -0.49447054 1.0061331
0.15230384 -0.49720711 1.0125555
0.14412785 -0.4951891 1.0091115
0.14089422 -0.51086819 1.0422632
0.13031745 -0.5001992 1.0208346
0.12377225 -0.50463957 1.030661
0.11212039 -0.48746705 0.99563366
0.1061876 -0.49448559 1.0107306
0.098228648 -0.49242094 1.0069472
0.091605775 -0.49726686 1.0174764
0.083738029 -0.49562016 1.0144857
0.076318197 -0.49656096 1.0168338
0.068748944 -0.49662969 1.0173323
0.058938537 -0.47851959 0.97997993
0.052434534 -0.485928 0.99566561
0.046064701 -0.49722561 1.0194168
0.03871331 -0.50029516 1.0260134
0.031240908 -0.50292498 1.0316597
0.022653593 -0.48347357 0.99129218
0.015329839 -0.48522294 0.99502796
0.0080798129 -0.49475685 1.0149394
0.00052580849 -0.49216375 1.0095602
-0.0070165256 -0.49432498 1.0140452
-0.01426761 -0.4843592 0.99323946
-0.021427117 -0.47914818 0.98230082
-0.029024264 -0.48388532 0.99204057
-0.036276981 -0.4821232 0.98821217
-0.045629483 -0.50415564 1.0338712
-0.05400572 -0.51059949 1.0470366
-0.062315773 -0.51487118 1.0556388
-0.069693744 -0.51134753 1.0479861
-0.073947586 -0.48791996 0.99892229
-0.080805019 -0.4843865 0.99119836
-0.089443177 -0.49122515 1.004989
-0.096155204 -0.4872458 0.99626929
-0.1035717 -0.48715124 0.99558252
-0.11118065 -0.48791391 0.9966374
-0.1183909 -0.48694101 0.99405581
-0.12735562 -0.49287295 1.0057453
-0.13614413 -0.49749932 1.0146793
-0.14307526 -0.49520805 1.0092498
-0.14835916 -0.48773158 0.99306792
-0.1605815 -0.5026899 1.0232246
-0.16228221 -0.48484862 0.98558062
-0.17883302 -0.51099598 1.0387
-0.21727018 -0.59488261 1.2106947
-0.24446972 -0.64250511 1.3076656
-0.25213686 -0.6371001 1.2953141
-0.26777816 -0.65149736 1.3236351
-0.27559331 -0.64650458 1.3120351
-0.26007667 -0.5890156 1.1927315
-0.25225317 -0.55220938 1.1160102
-0.24494085 -0.51886588 1.0464997
-0.2523264 -0.51777095 1.0430278
-0.26442418 -0.5261181 1.0587995
-0.28277075 -0.54604006 1.0980923
-0.27403292 -0.51401764 1.0314503
-0.3172445 -0.57850981 1.1612407
-0.32855973 -0.5829199 1.1685988
-0.3434737 -0.59331387 1.188024
-0.35996488 -0.60582834 1.211638
-0.37056527 -0.60804993 1.2143145
-0.42103174 -0.67397994 1.3455772
-0.43434164 -0.67870408 1.3529758
-0.47409254 -0.72356254 1.4410785
-0.50572312 -0.75426757 1.500388
-0.50285995 -0.73330474 1.4557753
-0.56750453 -0.80955571 1.6059448
-0.6105935 -0.85246283 1.6888543
-0.65213686 -0.89146674 1.7636001
-0.66146046 -0.88573247 1.7488766
-0.67902774 -0.89104533 1.7560896
-0.69244742 -0.89081389 1.7521905
-0.70046592 -0.88377672 1.7347456
-0.70209891 -0.86910099 1.7021916
-0.68619716 -0.8336665 1.6287478
-0.71824467 -0.85671556 1.6706283
-0.72891819 -0.85390162 1.6614583
-0.74133426 -0.85319191 1.6563687
-0.76118696 -0.86091781 1.6677099
-0.77821344 -0.86523914 1.6722745
-0.80422288 -0.87923712 1.6955625
-0.82670432 -0.88898176 1.7103957
-0.82836473 -0.87638384 1.6817997
-0.839746 -0.87430722 1.6735803
-0.85679168 -0.87810087 1.6766245
-0.86977059 -0.87767398 1.6714516
-0.88061154 -0.87513524 1.6621667
-0.90420139 -0.8851527 1.6768451
-0.91157174 -0.8792311 1.6609623
-0.92095554 -0.87539536 1.6490397
-0.9284302 -0.86988044 1.6339072
-0.9384405 -0.86686343 1.62349
-0.93645304 -0.85300153 1.5925963
-0.94471407 -0.84872699 1.5798112
-0.95142877 -0.84319764 1.5646585
-0.96224397 -0.84140164 1.5564798
-0.96289384 -0.83088118 1.5320108
-0.92042124 -0.78390741 1.4399273
-0.95144457 -0.79993129 1.4649216
-0.95152098 -0.78985989 1.4415317
-0.97245055 -0.79713446 1.4500955
-0.97013253 -0.78540814 1.4236974
-0.96541274 -0.7720474 1.3944036
-0.9587456 -0.75747019 1.3630083
-0.97428167 -0.76057339 1.3638054
-0.99253714 -0.76570153 1.3681679
-0.94376463 -0.71960258 1.2801807
-0.9105528 -0.68629265 1.2156889
0.99404222 -0.7508083 1.3018456
1.0140064 -0.77468359 1.3488141
1.0257931 -0.79279369 1.3858521
1.0641992 -0.83214444 1.4607493
1.0652193 -0.84284985 1.4850959
1.1544528 -0.92445165 1.6361799
1.1461737 -0.92900544 1.6500907
1.1112521 -0.91181064 1.6248686
1.0777776 -0.89538854 1.600767
0.98195094 -0.82609558 1.4806545
1.137192 -0.96895099 1.7451138
1.1561128 -0.99785411 1.8034774
1.1400659 -0.99693948 1.8075814
1.1344768 -1.0052669 1.8285549
1.093894 -0.98239273 1.7921401
1.0720025 -0.9759081 1.7856438
1.0548471 -0.97361487 1.7867619
1.0612372 -0.99329525 1.8285749
1.0309265 -0.97869605 1.8067049
1.011567 -0.97422099 1.8035089
1.0005647 -0.97778106 1.8152367
0.98216224 -0.9741081 1.8133484
0.96806824 -0.97466177 1.8193051
0.95144266 -0.97264427 1.8203409
0.92172444 -0.95697057 1.7954415
0.91143751 -0.96129405 1.8082533
0.89663023 -0.96091253 1.8120849
0.87671882 -0.95495886 1.8052161
0.8631404 -0.9558199 1.8112425
0.8476221 -0.95452547 1.8130742
0.83923209 -0.96135211 1.8304135
0.80525035 -0.93858862 1.7907962
0.80012113 -0.94924307 1.8153615
0.77191722 -0.93241209 1.7868187
0.77318329 -0.95121413 1.8270842
0.76119715 -0.95411402 1.8365633
0.74877816 -0.95657241 1.8451333
0.71047682 -0.92541444 1.7881337
0.68896765 -0.91532111 1.7719556
0.67474216 -0.91469014 1.7741432
0.66395652 -0.9187932 1.7855345
0.64509243 -0.91165376 1.7748077
0.63720584 -0.92005497 1.7945312
0.60561401 -0.89384162 1.7460297
0.56244522 -0.84896415 1.6604389
0.54021382 -0.83433998 1.6343033
0.52881986 -0.83615631 1.6405689
0.49781635 -0.80629998 1.5839562
0.47683126 -0.79158509 1.5571778
0.46392286 -0.78986806 1.5561105
0.43564153 -0.76119977 1.5012724
0.41255876 -0.74031305 1.4617394
0.40494388 -0.74679422 1.4767151
0.32646951 -0.61924011 1.2235061
0.29278976 -0.57165766 1.1297858
0.29386237 -0.59110141 1.1702193
0.31956744 -0.66285086 1.3157448
0.31116956 -0.66620535 1.3240507
0.3014847 -0.66693586 1.3270397
0.29463434 -0.6742028 1.3431528
0.28369534 -0.67229831 1.3407458
0.2770744 -0.68086404 1.3594218
0.26385927 -0.67326117 1.3454007
0.25514957 -0.67700636 1.3542577
0.24173671 -0.66806501 1.3373883
0.22691864 -0.65429688 1.310654
0.21221802 -0.63963491 1.2820108
0.20030889 -0.63239425 1.2683362
0.18650003 -0.61813563 1.2403347
0.17662996 -0.61612087 1.2371358
0.16598484 -0.61102998 1.227627
0.15638928 -0.60943258 1.2251705
0.14271054 -0.5907346 1.1878333
0.13147682 -0.58034754 1.1673453
0.12277824 -0.58046973 1.1682199
0.099513516 -0.50647581 1.0178493
0.090961345 -0.50130481 1.0077659
0.086359143 -0.51893502 1.044193
0.076975986 -0.5084849 1.0232525
0.071555138 -0.52479029 1.0569297
0.062129885 -0.51212889 1.0313821
0.054436974 -0.51218498 1.031783
0.046341162 -0.50784427 1.0231545
0.039780449 -0.52193213 1.0521791
0.031425979 -0.51362568 1.0353621
0.024192104 -0.52418864 1.0571096
0.01576606 -0.50664675 1.0213143
0.0085240845 -0.52992761 1.0690137
0.00053223682 -0.50578427 1.0196294
-0.0073842602 -0.52817255 1.0654277
-0.014788997 -0.50972205 1.0276176
-0.02266361 -0.51453334 1.0373704
-0.03018963 -0.51099581 1.0300031
-0.037641309 -0.50789034 1.0234838
-0.044568576 -0.49994954 1.0070407
-0.054137088 -0.5196535 1.0470902
-0.062517904 -0.52442497 1.0565585
-0.065975077 -0.49145147 0.98885244
-0.073418587 -0.49182314 0.98926944
-0.080367558 -0.489117 0.98336452
-0.08825662 -0.49210641 0.98905319
-0.095381603 -0.49070245 0.98573667
-0.10283023 -0.49104571 0.9859491
-0.11097626 -0.49445009 0.99236351
-0.11869782 -0.49565464 0.99425262
-0.12589607 -0.49466071 0.9916262
-0.1361324 -0.50504887 1.0121224
-0.15091453 -0.53031343 1.062799
-0.15818638 -0.52797574 1.0572858
-0.16552362 -0.52606928 1.0526154
-0.17308994 -0.52503151 1.0496737
-0.19660424 -0.57034945 1.1406554
-0.20982769 -0.58327359 1.1658367
-0.24521957 -0.65431225 1.3085153
-0.25666541 -0.65844125 1.3156248
-0.26929113 -0.665178 1.3279351
-0.27954677 -0.66578764 1.3278069
-0.28886735 -0.66420513 1.3232079
-0.2932297 -0.65170866 1.2965938
-0.31039509 -0.66755515 1.3269807
-0.34497058 -0.71867967 1.4281012
-0.35258868 -0.71224409 1.4134507
-0.36667386 -0.71886653 1.4249409
-0.3823202 -0.72808295 1.4415334
-0.40786558 -0.75511324 1.4936216
-0.41875491 -0.75428033 1.4899006
-0.44646084 -0.78298384 1.5449888
-0.46077213 -0.78732491 1.5513728
-0.47364071 -0.78904533 1.5524635
-0.50790411 -0.82545274 1.6223027
-0.51699477 -0.82018816 1.6093067
-0.53794575 -0.83354646 1.6331116
-0.55155885 -0.83518541 1.6336266
-0.56608796 -0.83810747 1.6365956
-0.59741235 -0.86522681 1.6870928
-0.64018691 -0.90742016 1.7669438
-0.66239893 -0.91931516 1.7870229
-0.66431481 -0.90313137 1.751996
-0.67384189 -0.89773595 1.7380911
-0.69309849 -0.90526032 1.7493433
-0.70247775 -0.89984244 1.735288
-0.70450026 -0.88538367 1.7036519
-0.7134133 -0.87996012 1.6895692
-0.71861148 -0.87023538 1.6671468
-0.74011767 -0.88025427 1.6828281
-0.74134624 -0.86622775 1.6520697
-0.75932479 -0.87191927 1.6592366
-0.79224324 -0.89428163 1.6982312
-0.80998594 -0.89905328 1.703329
-0.81141055 -0.88585305 1.6740397
-0.8219853 -0.88290751 1.6643137
-0.84093589 -0.88890916 1.6715274
-0.85758334 -0.89232653 1.6737239
-0.86433834 -0.88550407 1.6564857
-0.89702016 -0.90504742 1.6888967
-0.90372896 -0.89819282 1.6714667
-0.91282916 -0.89388192 1.6588024
-0.93804806 -0.90525109 1.6754019
-0.92749858 -0.88227087 1.6278387
-0.93930084 -0.8809008 1.6205865
-0.93230885 -0.86218798 1.5811687
-0.93727767 -0.85489792 1.5629803
-0.95186847 -0.85646272 1.5611085
-0.96838063 -0.85969138 1.5622094
-0.94222003 -0.82545078 1.4946651
-0.93454266 -0.80808234 1.4582218
-0.9455483 -0.80710727 1.4517213
-0.95402002 -0.80402148 1.4413496
-0.96339333 -0.80176306 1.4324515
-0.94216073 -0.77440423 1.3783485
-0.93662989 -0.76046151 1.3485883
-0.90574598 -0.72651899 1.2831985
-0.97430754 -0.77220219 1.3600072
-0.84491616 -0.66176641 1.1591054
-0.95564151 -0.73977965 1.2928188
nan nan nan
1.0066515 -0.77176237 1.3147426
0.98796326 -0.7661339 1.3099873
1.0327363 -0.81015849 1.3913249
1.0662415 -0.84627503 1.4593871
1.0756434 -0.86389244 1.4954927
1.089239 -0.88534266 1.5384862
1.0868062 -0.89412886 1.5593792
1.0978588 -0.91436327 1.6005502
1.0434192 -0.87987584 1.5448641
1.0411365 -0.88905442 1.5663966
1.0602336 -0.91695875 1.6214006
1.1203792 -0.9815492 1.7423618
1.0994747 -0.97589749 1.7378037
1.0953171 -0.98515791 1.7599853
1.0932314 -0.99655706 1.7860659
1.0769186 -0.99512166 1.7889293
1.0651969 -0.99794769 1.7994545
1.0547315 -1.0020469 1.8122594
1.0343295 -0.99668789 1.8077338
1.0109762 -0.98828876 1.7975018
1.0012834 -0.99319303 1.8115821
0.97004157 -0.97654992 1.7858934
0.96708989 -0.98831397 1.8125051
0.95505917 -0.99101865 1.8223593
0.94498581 -0.99587071 1.8361583
0.90244383 -0.96611708 1.7854247
0.87305099 -0.9497084 1.7592753
0.87192428 -0.96401393 1.7904379
0.86343741 -0.97052246 1.8070173
0.83614671 -0.95575809 1.7835414
0.84325582 -0.98048282 1.8343627
0.82356209 -0.97436333 1.8270012
0.81197715 -0.97779024 1.8376052
0.79140162 -0.97031844 1.8274645
0.77346784 -0.96586919 1.8229415
0.74981928 -0.95398146 1.8041219
0.74669546 -0.96825188 1.8351291
0.74348384 -0.98296505 1.8670216
0.72395486 -0.97626179 1.8578569
0.70492369 -0.96997035 1.8493596
0.70008808 -0.98335654 1.878644
0.69149852 -0.99192643 1.8986553
0.64765221 -0.94919634 1.8194835
0.63870078 -0.95684659 1.8375077
0.61891776 -0.9482488 1.8239926
0.59881246 -0.93874663 1.8085921
0.58527142 -0.93932784 1.8126836
0.56608665 -0.93065906 1.7986771
0.55837429 -0.94088912 1.8214422
0.54449713 -0.94098908 1.8243911
0.53309321 -0.94548076 1.8358679
0.5186469 -0.9446733 1.8369085
0.47617823 -0.89136547 1.7347893
0.46436122 -0.89403105 1.7423693
0.44042993 -0.87284499 1.7029399
0.39223018 -0.80082798 1.5631435
0.41203377 -0.86749369 1.6966317
0.40831977 -0.88734305 1.7378671
0.38274533 -0.85942686 1.6846412
0.35836294 -0.83235872 1.6329068
0.33311149 -0.80127132 1.5730271
0.33646438 -0.83923435 1.6499835
0.31184301 -0.80765784 1.5888978
0.29752365 -0.80130816 1.5777884
0.28386068 -0.79627222 1.5692102
0.27352405 -0.80053502 1.5790759
0.26450834 -0.80922532 1.5977229
0.2484474 -0.79616368 1.5729429
0.23210779 -0.78086293 1.5435933
0.22461852 -0.79529327 1.5735419
0.2067157 -0.77240968 1.5288711
0.20139083 -0.796597 1.5782511
0.18424423 -0.77412385 1.5342292
0.16636954 -0.74540621 1.4775901
0.15508451 -0.74422932 1.4760246
0.14202458 -0.7337032 1.4556569
0.1248216 -0.69825649 1.3852274
0.10676876 -0.65122187 1.2914307
0.097337753 -0.65265596 1.2948115
0.087384909 -0.6505214 1.2909802
0.078557856 -0.65727717 1.3049576
0.071067706 -0.67871177 1.3483905
0.060741387 -0.67566049 1.3425828
0.049602214 -0.66058028 1.3125416
0.039150525 -0.64949477 1.2904731
0.029391058 -0.64641201 1.2844429
0.019749912 -0.64420992 1.2801355
0.010223228 -0.64511496 1.2820293
0.00065218972 -0.62909251 1.2498317
-0.0082478914 -0.59881401 1.1889167
-0.017765246 -0.62150711 1.2344917
-0.027123634 -0.62504679 1.2414995
-0.032259192 -0.55423415 1.0989647
-0.036012266 -0.49321452 0.97611731
-0.040694442 -0.46335384 0.91590452
-0.046364821 -0.4517391 0.89234829
-0.061255272 -0.52155805 1.0323638
-0.065852351 -0.49791157 0.98455417
-0.073216677 -0.4978438 0.9840759
-0.082450025 -0.50933444 1.0067571
-0.089035623 -0.50391322 0.99545759
-0.097418174 -0.5087142 1.0046271
-0.10484037 -0.5081709 1.0030397
-0.11352264 -0.51339906 1.0129768
-0.12141386 -0.51461792 1.0148383
-0.13000758 -0.51849449 1.0219767
-0.1485038 -0.55922896 1.1027639
-0.15973249 -0.56973779 1.1230084
-0.17166142 -0.58156443 1.1458129
-0.18049659 -0.5822804 1.146372
-0.19871674 -0.61182642 1.2043626
-0.20801209 -0.61251533 1.2047297
-0.21528172 -0.60743088 1.1935587
-0.24383681 -0.66040349 1.2978064
-0.27275151 -0.71022683 1.3955548
-0.26673418 -0.6687668 1.3118919
-0.29008102 -0.70126277 1.3749738
-0.28934622 -0.67530781 1.3221029
-0.29608318 -0.66794306 1.3060714
-0.31698111 -0.69196767 1.3520533
-0.35738534 -0.75573611 1.4763232
-0.35871041 -0.73550344 1.4346298
-0.39516252 -0.78636515 1.5329659
-0.41710821 -0.80627376 1.5701196
-0.42390028 -0.79659742 1.5490093
-0.45837516 -0.83805805 1.6281788
-0.47944254 -0.8534658 1.6560366
-0.4895235 -0.8490271 1.6449326
-0.49946836 -0.84458053 1.6337745
-0.52500838 -0.86607772 1.6731604
-0.54133362 -0.87171102 1.6814698
-0.55055028 -0.86590153 1.6674397
-0.54759359 -0.84164631 1.6175915
-0.56874746 -0.85470349 1.6401097
-0.57117838 -0.83966827 1.608157
-0.63803858 -0.91797066 1.7563962
-0.65460193 -0.92215151 1.7612172
-0.66620088 -0.91931087 1.752436
-0.67770785 -0.91645974 1.7435853
-0.67132586 -0.89000434 1.6894704
-0.67492461 -0.87754482 1.6622448
-0.68602347 -0.8751238 1.6542007
-0.70922828 -0.88794899 1.6751357
-0.7154215 -0.87939668 1.655287
-0.73073369 -0.88215864 1.6568899
-0.74611121 -0.88490129 1.658366
-0.76975399 -0.89718258 1.6777532
-0.78766662 -0.90248173 1.6838201
-0.7618292 -0.85831314 1.5968519
-0.81177324 -0.89957201 1.6702956
-0.8342663 -0.90956986 1.6848596
-0.80743998 -0.86633319 1.5999997
-0.84199256 -0.88927466 1.638566
-0.86429751 -0.89877355 1.6519092
-0.89611387 -0.91772497 1.6825826
-0.91946894 -0.92757422 1.696205
-0.92012912 -0.91457552 1.6676148
-0.93445915 -0.91534424 1.6643535
-0.91809982 -0.88645917 1.6067526
-0.95501429 -0.90910143 1.6434079
-0.91263258 -0.85667944 1.54319
-0.96497899 -0.8933962 1.6051639
-0.94152069 -0.8598873 1.5396734
-0.95742267 -0.86274087 1.5400485
-0.96330732 -0.85661137 1.5241845
-0.94716012 -0.83130443 1.4739697
-0.89838564 -0.77837795 1.3746618
-0.92568839 -0.7918722 1.3941419
-0.94780278 -0.80064601 1.4050337
-1.0153582 -0.8471145 1.4824146
-0.88733655 -0.73127002 1.2731677
-0.9551602 -0.77767289 1.3501822
-0.88717115 -0.71371138 1.2334569
-0.84984279 -0.6756314 1.162604
-0.84633821 -0.6650151 1.1398954
nan nan nan
1.0022527 -0.77977014 1.3050818
1.0280367 -0.80901664 1.3597496
1.0401789 -0.82808244 1.3973658
1.0825856 -0.87197322 1.4776745
1.0224791 -0.8333562 1.4166836
1.064153 -0.87776279 1.4983423
1.0630119 -0.88750547 1.5204918
0.99346393 -0.83967119 1.4427146
1.0076045 -0.86225885 1.4870178
1.0425071 -0.90340936 1.5639794
1.0817093 -0.94938803 1.6498233
1.0400091 -0.92463249 1.6116579
1.1016697 -0.99232811 1.7363517
1.1240396 -1.025965 1.8014189
1.0873953 -1.0059177 1.7714244
1.0628326 -0.99665093 1.7603483
1.0161097 -0.96605837 1.7109917
1.0369428 -0.99973726 1.7764359
1.0314732 -1.0086561 1.7976542
1.0099277 -1.0018858 1.7906097
0.98898 -0.99551785 1.7841516
0.97374326 -0.99479485 1.7877891
0.96230161 -0.99798554 1.7984605
0.96197456 -1.0129783 1.8305969
0.92968446 -0.9942559 1.8012017
0.91645372 -0.99564624 1.8083988
0.8813048 -0.97288543 1.7711848
0.89765877 -1.0071652 1.8386972
0.87874943 -1.0023624 1.8343215
0.86109543 -0.99885321 1.8322219
0.83605915 -0.98651236 1.8136431
0.82016206 -0.98471177 1.8144722
0.78877836 -0.96392167 1.7798461
0.78350961 -0.97486973 1.8042166
0.77966601 -0.98802871 1.8327383
0.77544183 -1.0011922 1.8612993
0.75906521 -0.99886972 1.8608003
0.73481905 -0.98589778 1.8401653
0.72711968 -0.99505168 1.8610845
0.71311593 -0.99577546 1.866068
0.69970328 -0.99737197 1.8726343
0.7106449 -1.0344889 1.9465015
0.67928535 -1.0103023 1.9040762
0.65298814 -0.9927389 1.874018
0.63662487 -0.98982376 1.8716964
0.64272946 -1.0225174 1.9372833
0.59235364 -0.96477461 1.8300136
0.58316672 -0.97293848 1.8485827
0.57191211 -0.97797394 1.8611253
0.55719614 -0.97719687 1.8624549
0.53405654 -0.96121758 1.8344508
0.5186193 -0.95861328 1.8320631
0.50230747 -0.95420313 1.8261046
0.49069417 -0.95872152 1.8373065
0.47694105 -0.95920169 1.8406464
0.42707348 -0.88488275 1.6989995
0.41917753 -0.89560467 1.721892
0.41198328 -0.90856427 1.7491138
0.42074385 -0.9587419 1.8486904
0.39855111 -0.93941259 1.8131232
0.3504346 -0.855425 1.6514171
0.33382791 -0.84499025 1.632773
0.32503718 -0.85429788 1.6525717
0.3126848 -0.85461366 1.6547699
0.3041085 -0.86570477 1.6779841
0.28884837 -0.85790604 1.6641915
0.26540762 -0.82400227 1.5991596
0.24875687 -0.80896157 1.5709496
0.24242587 -0.82765436 1.6088349
0.23128901 -0.83103955 1.6166523
0.21826933 -0.82765996 1.6111243
0.20298848 -0.81480789 1.5868999
0.18966341 -0.8086955 1.5758462
0.18196456 -0.82735318 1.6134868
0.16946292 -0.82527363 1.6102588
0.15873937 -0.83219755 1.6247114
0.1443173 -0.81927264 1.5999802
0.13260131 -0.82076246 1.6036015
0.11633267 -0.79157043 1.5466205
0.10873574 -0.82145238 1.6061527
0.093730509 -0.7958383 1.5560808
0.083987035 -0.81397343 1.5923342
0.067157649 -0.75809598 1.4823251
0.058435727 -0.78974682 1.545172
0.046939846 -0.79025036 1.5464265
0.036035419 -0.80428255 1.5743657
0.023902964 -0.79122311 1.5486983
0.012475736 -0.79891419 1.5639923
0.00080694334 -0.78989345 1.5461915
-0.011082364 -0.81651908 1.598804
-0.021917764 -0.77813697 1.5228453
-0.031613156 -0.73929441 1.4459308
-0.036265656 -0.63229567 1.2342753
-0.040425301 -0.56185418 1.094875
-0.04491128 -0.51894104 1.0098722
-0.050380781 -0.49813721 0.96853966
-0.063649192 -0.54996741 1.0706228
-0.070079468 -0.53772056 1.0461128
-0.074844293 -0.51644814 1.0037686
-0.087692477 -0.54974276 1.0690602
-0.095778286 -0.55010289 1.0693181
-0.1041283 -0.55180746 1.0721853
-0.11875741 -0.58415335 1.1353725
-0.12470321 -0.57231498 1.111456
-0.14350058 -0.61724168 1.1992277
-0.16727467 -0.67700297 1.316026
-0.17711046 -0.67683262 1.3148401
-0.21405275 -0.77479631 1.5063466
-0.22699896 -0.7804299 1.5163168
-0.23584457 -0.77210075 1.4988303
-0.24631655 -0.76961279 1.4927596
-0.25927079 -0.77475941 1.5015891
-0.23076889 -0.66077232 1.2772815
-0.25520498 -0.70142972 1.3555806
-0.27690318 -0.73171633 1.4134305
-0.26700157 -0.67935187 1.3098775
-0.2952846 -0.72441459 1.3963457
-0.29114556 -0.68957114 1.3270214
-0.29618397 -0.67806625 1.303177
-0.32334682 -0.71631819 1.3759803
-0.36267129 -0.77827221 1.494544
-0.36524487 -0.75999326 1.4572898
-0.3879022 -0.78334969 1.5006456
-0.4052937 -0.7950393 1.5212779
-0.42465523 -0.80983508 1.5477875
-0.43383485 -0.80493814 1.5362
-0.44855514 -0.81030834 1.544342
-0.4565731 -0.80360621 1.5291899
-0.46829301 -0.80359221 1.5268521
-0.50850737 -0.85128069 1.615864
-0.49770907 -0.81333238 1.5406852
-0.51149684 -0.8163932 1.5440108
-0.52507806 -0.81899267 1.546376
-0.53697449 -0.81890696 1.5435519
-0.55332953 -0.82547647 1.5533142
-0.64044732 -0.93508309 1.7584295
-0.64805126 -0.92644417 1.7388234
-0.66838861 -0.93598986 1.7535768
-0.67735541 -0.92954916 1.7380357
-0.66900957 -0.90006936 1.6790984
-0.68431342 -0.90293002 1.6810766
-0.69216961 -0.89604115 1.6646855
-0.70469111 -0.89533532 1.6598495
-0.71718091 -0.89461565 1.6549264
-0.72675729 -0.89035237 1.6433405
-0.75341731 -0.90680045 1.670223
-0.7604118 -0.89942026 1.652707
-0.77362281 -0.89951861 1.6490247
-0.76874804 -0.87893575 1.6070976
-0.82032371 -0.92251074 1.6834358
-0.81992996 -0.907179 1.6511023
-0.83842975 -0.91290635 1.6574305
-0.83867884 -0.89889365 1.6275584
-0.86797291 -0.91596329 1.6544152
-0.89056528 -0.92555022 1.6674366
-0.89761657 -0.91894042 1.6509278
-0.91788036 -0.92585248 1.6588689
-0.92252898 -0.9170416 1.6383203
-0.93403083 -0.91519791 1.6303228
-0.94231278 -0.91029567 1.6167941
-0.90529323 -0.8623758 1.5263448
-0.95426697 -0.89656341 1.5826939
-0.92369282 -0.85609937 1.5059514
-0.87213379 -0.79752576 1.3975043
-0.97426742 -0.87918872 1.5373135
-0.90008217 -0.80168492 1.395943
-0.93422735 -0.82141984 1.4260247
-0.9529891 -0.82730025 1.4315919
-0.91013789 -0.78021574 1.3447034
-0.91679651 -0.77621263 1.3331602
-0.92230326 -0.77134395 1.3201128
-0.90275848 -0.74589425 1.271561
-0.8426798 -0.68795919 1.1674151
nan nan nan
-0.82077903 -0.65448356 1.1017671
nan nan nan
0.9830879 -0.77602214 1.2760057
1.0247167 -0.81817275 1.351269
1.0299093 -0.83187276 1.3793054
1.0389711 -0.84905684 1.4133202
1.03708 -0.85759258 1.4328847
0.91764653 -0.76796424 1.2861298
1.0479764 -0.88772166 1.4943604
1.0030379 -0.86013561 1.4524919
1.0542153 -0.91531217 1.5519654
1.0066085 -0.88503122 1.505188
1.0250591 -0.91279775 1.5580668
1.0403389 -0.93842429 1.6074957
1.0362263 -0.94700217 1.6275675
1.0645576 -0.98585373 1.700356
1.050194 -0.98568231 1.7053728
1.0404357 -0.98988754 1.717983
1.031458 -0.99496257 1.7320963
0.99168718 -0.97005892 1.6933842
1.0036992 -0.99582082 1.7438548
0.9930644 -0.99953425 1.7554537
0.97625041 -0.99704605 1.7560003
0.95307922 -0.9878943 1.7445797
0.92297763 -0.97117305 1.7194773
0.92942256 -0.99298382 1.7631606
0.93608081 -1.0157069 1.8086164
0.8921206 -0.98335528 1.7550524
0.9137488 -1.0234221 1.8318334
0.89242899 -1.0159107 1.822811
0.8528167 -0.98697883 1.7747958
0.84580916 -0.99544013 1.7944422
0.83594614 -1.0007744 1.8083898
0.82665628 -1.0069939 1.8239256
0.80744505 -1.001134 1.8173258
0.80114281 -1.0113573 1.8401124
0.77225268 -0.9929167 1.8102041
0.75651783 -0.99101412 1.8105496
0.74519074 -0.99492335 1.8215382
0.74726421 -1.0172275 1.866514
0.73382455 -1.0188831 1.8733039
0.71207684 -1.0088359 1.8582947
0.69557422 -1.0059562 1.8564773
0.69864905 -1.0318692 1.908242
0.66755396 -1.0073442 1.8659093
0.64969993 -1.0021553 1.8595142
0.6588614 -1.0393474 1.9324384
0.60237265 -0.97229964 1.8098389
0.59039199 -0.9756133 1.8190526
0.57644057 -0.97575223 1.8222357
0.54501307 -0.94557798 1.7681705
0.54646623 -0.97236586 1.821467
0.5340175 -0.97517461 1.8294784
0.51665097 -0.96891218 1.8202475
0.50109947 -0.96580088 1.8168905
0.48837358 -0.96811318 1.8237501
0.47690904 -0.97313523 1.835705
0.47198889 -0.99221843 1.8743949
0.45353329 -0.98315042 1.8594195
0.4428409 -0.99086899 1.87638
0.41580218 -0.96130925 1.8220488
0.40195626 -0.96126586 1.8240007
0.38112622 -0.9439221 1.7927424
0.34270951 -0.88013166 1.6722832
0.32573745 -0.86863327 1.651884
0.31286582 -0.86758804 1.6514626
0.29702255 -0.8578732 1.6343031
0.28674564 -0.86408997 1.6477118
0.27411631 -0.86346018 1.6478897
0.26329789 -0.86874568 1.6594075
0.24837393 -0.86033654 1.6444575
0.23681627 -0.86331767 1.6514127
0.2255259 -0.86765695 1.6609383
0.21063313 -0.85783339 1.6430317
0.19633563 -0.84936231 1.6276567
0.19158532 -0.88380963 1.6952726
0.17780039 -0.87851346 1.6859318
0.16261879 -0.8649776 1.6605529
0.14576045 -0.83954161 1.6120188
0.13690908 -0.85979402 1.6519845
0.12760668 -0.88095492 1.6936829
0.11339962 -0.86918867 1.6714468
0.097830608 -0.8427738 1.6206959
0.086275347 -0.84835398 1.6319847
0.07316085 -0.83791488 1.6121044
0.061680004 -0.84575826 1.6276733
0.049490802 -0.84535658 1.627167
0.037070204 -0.8394531 1.615909
0.025241334 -0.84771901 1.6321267
0.012899873 -0.83813083 1.6135856
0.00083239638 -0.82670039 1.5914028
-0.011138644 -0.83264261 1.6029271
-0.023140589 -0.83354038 1.6045873
-0.034300227 -0.81383985 1.5661589
-0.046030369 -0.81425703 1.5667715
-0.053327698 -0.75199604 1.4455566
-0.058560584 -0.68653131 1.318109
-0.064326495 -0.64530689 1.2377408
-0.066715501 -0.58487535 1.1200782
-0.067719057 -0.52719241 1.007777
-0.076728761 -0.53717846 1.0267981
-0.091198437 -0.58006537 1.1095747
-0.13168159 -0.76735145 1.4721726
-0.14133401 -0.7599026 1.4570611
-0.15369987 -0.76706493 1.4702072
-0.16028507 -0.74635077 1.4293232
-0.18008648 -0.78591406 1.5050437
-0.19256894 -0.79074955 1.5134741
-0.2117793 -0.82113189 1.5711979
-0.21694584 -0.79672855 1.5229998
-0.22912681 -0.79924214 1.5267467
-0.2387675 -0.79307765 1.5136975
-0.25024176 -0.79328799 1.5128908
-0.26066595 -0.79029638 1.5058628
-0.23618475 -0.68614966 1.3042407
-0.24547768 -0.68454105 1.2999527
-0.25658908 -0.68793172 1.3052183
-0.26444346 -0.68266273 1.2938139
-0.28950697 -0.72060597 1.3651682
-0.2967214 -0.71303385 1.3492111
-0.30606449 -0.71091211 1.3436528
-0.31594902 -0.7101447 1.3406383
-0.35876316 -0.78112167 1.4744114
-0.38014606 -0.80254328 1.5134025
-0.38197863 -0.78264517 1.473621
-0.39691368 -0.78996384 1.4855931
-0.42493322 -0.82219195 1.5447372
-0.43027231 -0.80997908 1.5194433
-0.44464749 -0.8149721 1.5267118
-0.45890293 -0.81949478 1.5330049
-0.46834293 -0.81540698 1.5229677
-0.48058805 -0.81628335 1.5222452
-0.4906705 -0.81353235 1.5146354
-0.51181901 -0.82882953 1.5408709
-0.53253198 -0.84274125 1.5643536
-0.53060603 -0.82100439 1.5209757
-0.55217618 -0.83577806 1.5458819
-0.63068253 -0.93426484 1.7267289
-0.64150232 -0.93046612 1.7164576
-0.64239621 -0.91271985 1.6802325
-0.67473298 -0.93946391 1.7265599
-0.66767299 -0.91138083 1.6711638
-0.67524028 -0.90396118 1.6540698
-0.68771088 -0.90326202 1.6493511
-0.69771826 -0.89941353 1.638779
-0.70725423 -0.89510858 1.6273329
-0.72133684 -0.89660895 1.6264863
-0.74057055 -0.9043467 1.6369582
-0.73768282 -0.8852703 1.5984185
-0.77131432 -0.90992314 1.6395059
-0.80022579 -0.92827791 1.6688886
-0.82415867 -0.94034964 1.6866717
-0.80679649 -0.90567565 1.6198759
-0.86250097 -0.95282149 1.7006884
-0.85127962 -0.92571491 1.6476095
-0.87038141 -0.93190998 1.6543846
-0.93543905 -0.98637527 1.7472949
-0.89113492 -0.92561924 1.6342633
-0.91475451 -0.93616551 1.648483
-0.92024183 -0.92811859 1.6295778
-0.96278286 -0.95713806 1.676196
-0.9507575 -0.93185765 1.6267624
-0.9034186 -0.87314963 1.5187881
-0.95647794 -0.9117558 1.5818415
-0.93485045 -0.8790856 1.5199383
-0.95349205 -0.88464922 1.5248936
-0.99045038 -0.90683657 1.558581
-0.9586935 -0.86635083 1.4835274
-0.97830504 -0.87272888 1.4896846
-0.92220217 -0.81225765 1.3808022
-0.90563232 -0.78768367 1.3340521
-0.91578996 -0.78667635 1.3277696
-0.90334314 -0.76651299 1.288852
-0.78048879 -0.65428168 1.0940092
-0.86112458 -0.71327752 1.1897702
nan nan nan
-0.83323044 -0.67410898 1.115382
nan nan nan
0.98032081 -0.78496903 1.2685044
1.0051701 -0.8141104 1.321184
0.99396282 -0.81438667 1.3266045
1.0134351 -0.84010172 1.3740509
1.0442913 -0.87597728 1.4386182
1.0016381 -0.85031313 1.4010435
0.99294746 -0.85320652 1.4108502
0.96437657 -0.83887792 1.391747
0.99484545 -0.87618965 1.4593414
0.96233529 -0.85827595 1.4340389
1.0052912 -0.9080714 1.5232018
1.0135039 -0.92736846 1.5610133
1.0173663 -0.94314015 1.592962
1.0274259 -0.9651534 1.6356956
1.0649434 -1.0139031 1.7244791
1.02176 -0.98610252 1.6819444
0.99933904 -0.97784632 1.6727947
0.99781728 -0.99009526 1.6989981
0.97907448 -0.98536223 1.6957664
0.99375165 -1.0146136 1.7516047
0.94104069 -0.97491097 1.6872352
0.94651669 -0.99520427 1.7274812
0.92620116 -0.98858345 1.7205892
0.91682506 -0.99361467 1.7340807
0.90484625 -0.99593812 1.7427685
0.89439976 -1.0000486 1.7545696
0.90723217 -1.0307397 1.8134998
0.89578795 -1.0344026 1.8245522
0.85076827 -0.99877107 1.7654967
0.85817307 -1.0245194 1.8157711
0.83023071 -1.0082293 1.7908754
0.80930787 -1.000042 1.7803221
0.81164849 -1.0208213 1.8217607
0.78508371 -1.0053403 1.7978908
0.77145213 -1.006155 1.8032813
0.7567603 -1.0055913 1.806109
0.73938638 -1.0013736 1.8022269
0.75143486 -1.0376186 1.8718349
0.73112929 -1.029743 1.8612254
0.71419734 -1.0263948 1.8587518
0.69299501 -1.0166425 1.8444645
0.68087983 -1.0200902 1.8542295
0.66030854 -1.0107436 1.8404517
0.63998395 -1.0013683 1.8264866
0.61447984 -0.98327935 1.7963332
0.61153513 -1.0012876 1.8326176
0.59251994 -0.99321377 1.8207226
0.60732591 -1.0428201 1.9155092
0.58091122 -1.0223575 1.8805664
0.55734116 -1.0059814 1.8530236
0.53966594 -0.99966478 1.8440279
0.51298892 -0.97588283 1.8023928
0.51280558 -1.0025798 1.8547211
0.48490691 -0.97506803 1.805861
0.49019587 -1.014635 1.8822495
0.46827462 -0.9985705 1.8545777
0.45098072 -0.99167937 1.8439584
0.4369154 -0.99167281 1.8461599
0.41263136 -0.96770084 1.803251
0.40629783 -0.98562509 1.8389963
0.39009824 -0.98004013 1.8304658
0.33829108 -0.88128138 1.6461726
0.32626045 -0.88254279 1.6502051
0.31468216 -0.8851769 1.6567726
0.30066159 -0.88087469 1.6501709
0.28509587 -0.87147641 1.6338477
0.2729716 -0.87222284 1.6366467
0.26040828 -0.87157047 1.6367346
0.24799125 -0.87136734 1.6376107
0.23920274 -0.88456082 1.663857
0.22494239 -0.87786037 1.6522828
0.21411575 -0.88456023 1.6661029
0.20425683 -0.89634055 1.6895404
0.1925786 -0.90117067 1.6997133
0.1778978 -0.8916384 1.6824837
0.16511479 -0.89088714 1.6819018
0.14862527 -0.86835587 1.6397415
0.13771597 -0.87730175 1.657505
0.12747771 -0.89272368 1.6875749
0.11221234 -0.87246031 1.6495055
0.095292427 -0.83271646 1.5741632
0.087070942 -0.86849272 1.6429169
0.074882165 -0.86996555 1.6461298
