# .PCD v0.7 - Point Cloud Data file format
VERSION 0.7
FIELDS x y z
SIZE 4 4 4
TYPE F F F
COUNT 1 1 1
WIDTH 1429
HEIGHT 1
VIEWPOINT 0 0 0 1 0 0 0
POINTS 1429
DATA ascii
0.82051015 -0.067345262 2.062448
0.79543388 -0.066494517 2.0400534
0.77956605 -0.06639602 2.0407782
0.76442528 -0.06635683 2.0432549
0.74963254 -0.066346914 2.0465589
0.73416364 -0.066275567 2.0478723
0.71772927 -0.066112377 2.0462377
0.70522094 -0.066311561 2.0558283
0.69419658 -0.066661708 2.0700855
0.67311847 -0.066040665 2.0538704
0.65411365 -0.065599993 2.0431805
0.64298964 -0.065947615 2.0571482
0.62243915 -0.065322101 2.0404465
0.61064208 -0.065607324 2.0523186
0.59180039 -0.065131143 2.0401123
0.58341503 -0.065810688 2.0643156
0.56445587 -0.065301731 2.050895
0.52516466 -0.062352054 1.9600341
0.52942741 -0.064553827 2.0322807
0.51689523 -0.064773083 2.0416629
0.49999541 -0.064441919 2.0334904
0.48876044 -0.06484285 2.0485268
0.47376525 -0.064754091 2.0479171
0.45901918 -0.064694896 2.0481751
0.43587774 -0.063410558 2.0092416
0.42938185 -0.06454289 2.0473967
0.41292921 -0.064204983 2.0385191
0.39490548 -0.06359002 2.0206823
0.38430601 -0.064169265 2.0410144
0.36902484 -0.06398125 2.0367024
0.3533102 -0.06370008 2.0293226
0.34359828 -0.064522773 2.0573232
0.32160911 -0.063011371 2.0102606
0.30687818 -0.062849507 2.0064783
0.28734368 -0.061641797 1.9689564
0.27270341 -0.06141597 1.962949
0.24427752 -0.057898983 1.8507899
0.19563158 -0.048934933 1.562768
0.17765325 -0.047041137 1.5025154
0.16761833 -0.047145888 1.5066727
0.15743215 -0.047219172 1.5097692
0.14740305 -0.047353331 1.5147877
0.13606589 -0.047055658 1.505802
0.1255984 -0.047034342 1.5056989
0.11536486 -0.04710469 1.5085137
0.10461805 -0.046958618 1.5042794
0.094243459 -0.046965849 1.504958
0.083974399 -0.047033969 1.5075614
0.073384762 -0.046916399 1.5041056
0.063177295 -0.047044683 1.5085655
0.052704744 -0.046987243 1.5069634
0.042340212 -0.047021542 1.5082866
0.03183433 -0.046870071 1.5035435
0.021437485 -0.046810344 1.5017265
0.011103388 -0.046904046 1.5048362
0.00072590925 -0.046873633 1.5038768
-0.0096506495 -0.04690415 1.5048461
-0.020027217 -0.046903066 1.5047446
-0.030382827 -0.046870388 1.5035733
-0.040723324 -0.046836965 1.5023316
-0.051115472 -0.04686445 1.5030172
-0.061599668 -0.046952832 1.5056292
-0.071932755 -0.04691714 1.5041751
-0.081870206 -0.04666495 1.4956644
-0.092547126 -0.046843529 1.5010566
-0.10296284 -0.046867233 1.5013869
-0.11346173 -0.046921004 1.5026428
-0.12365717 -0.046850797 1.4998409
-0.13478854 -0.047118627 1.5079226
-0.14480224 -0.046985332 1.5029874
-0.1553648 -0.047036059 1.5039527
-0.16464555 -0.046716716 1.4929214
-0.17597243 -0.046981383 1.5006987
-0.18619284 -0.046937592 1.4984708
-0.1963909 -0.04689309 1.4961741
-0.20765051 -0.047093816 1.5017313
-0.21828355 -0.047140036 1.5022581
-0.22938049 -0.047277659 1.5056753
-0.23959948 -0.047230221 1.5030879
-0.25011891 -0.047243483 1.5024041
-0.26047096 -0.047225341 1.5006624
-0.27028304 -0.047114484 1.4958985
-0.28022513 -0.047033664 1.492054
-0.29315758 -0.047442585 1.503847
-0.30391136 -0.04748283 1.5037719
-0.31447527 -0.047491718 1.5026418
-0.33174011 -0.048479285 1.5327131
-0.43824649 -0.062037986 1.9637097
-0.45909625 -0.063015901 1.992828
-0.47967628 -0.063900247 2.0188341
-0.49355218 -0.063866429 2.0155132
-0.5078916 -0.063892804 2.0140367
-0.52248418 -0.063948736 2.0134265
-0.53990799 -0.064339116 2.0233397
-0.55723047 -0.064697661 2.0321443
-0.57200921 -0.064750314 2.0311799
-0.58542436 -0.064649791 2.0253046
-0.60245603 -0.064943932 2.0318065
-0.60863429 -0.064081647 2.0018065
-0.63155806 -0.064981572 2.0272045
-0.64671129 -0.065059721 2.0266531
-0.66343039 -0.065288551 2.0307431
-0.6780346 -0.065303952 2.0280581
-0.69167221 -0.065227538 2.0224285
-0.70625049 -0.065241158 2.0195396
-0.72583735 -0.065707639 2.0306759
-0.74186593 -0.065840013 2.0313008
-0.75412303 -0.065639012 2.0214899
-0.7638098 -0.065226115 2.0050607
-0.78338671 -0.065657437 2.0147042
-0.79324692 -0.065273508 1.9990612
-0.82193607 -0.066424966 2.0306804
-0.83821529 -0.066550687 2.0305498
-0.85337973 -0.066585079 2.027523
-0.86972135 -0.066708595 2.0271416
-0.87416559 -0.065930679 1.9991213
-0.90130931 -0.066862218 2.0232441
-0.91528517 -0.066802613 2.0170102
-0.92713916 -0.0665925 2.006135
-0.93677747 -0.066232309 1.9906622
-0.96856749 -0.067425266 2.0220935
-0.96296394 -0.066018417 1.9748977
-1.0026808 -0.067714244 2.021138
-1.0121942 -0.067350417 2.0052555
-1.0283489 -0.067432672 2.0026951
-1.0417622 -0.06733536 1.99468
-1.0607117 -0.067593589 1.9971849
-1.0627537 -0.066782199 1.9678034
-1.0964856 -0.067957103 1.9972972
-1.0977515 -0.067115285 1.9669536
-1.1006175 -0.066392474 1.940171
-1.1210372 -0.066733629 1.9446774
-1.1250021 -0.066099137 1.920472
-1.1205608 -0.064993344 1.8825314
-1.126965 -0.064536661 1.863602
-1.1227651 -0.063491739 1.8275998
-1.1523117 -0.064357407 1.8469955
-1.1513392 -0.063518234 1.8169777
-1.1494732 -0.062650621 1.7862186
-1.1423501 -0.061520535 1.7480217
-1.1462913 -0.06100592 1.7275467
-1.1566674 -0.060841769 1.7170762
-1.1591055 -0.060268648 1.6949599
1.3988187 -0.087674297 2.0135841
1.3864117 -0.087894663 2.0257025
1.3816875 -0.088612892 2.049372
1.333253 -0.086511739 2.0071552
1.3415301 -0.088084228 2.0506985
1.3185811 -0.08761964 2.0464604
1.2946942 -0.087080643 2.0403104
1.269907 -0.086467035 2.0322282
1.2614437 -0.086963482 2.0503397
1.2337435 -0.086129516 2.0367391
1.2266566 -0.086731657 2.0572534
1.1962099 -0.08567635 2.0380423
1.1824962 -0.085807495 2.0471182
1.1697015 -0.086009711 2.0578401
1.1427542 -0.085162684 2.0431423
1.1246935 -0.084963806 2.0439565
1.1095194 -0.08498048 2.0498993
1.0919878 -0.084814541 2.0513101
1.0749562 -0.084683239 2.0534613
1.062044 -0.084877379 2.0634832
1.0387348 -0.084234074 2.0528822
1.0204936 -0.083988689 2.0519142
0.99708647 -0.083304293 2.0400014
0.98378682 -0.083456285 2.0486112
0.97169256 -0.083716877 2.0598481
0.9511447 -0.083245844 2.0528548
0.9323895 -0.082919084 2.0493188
0.91575807 -0.082773574 2.0501888
0.90195489 -0.082883105 2.0573401
0.88535446 -0.082734957 2.0579641
0.86840653 -0.08254867 2.0575342
0.84657359 -0.081883371 2.0449519
0.83653587 -0.082355544 2.0609012
0.81457633 -0.081649885 2.0470645
0.79465377 -0.081126079 2.037684
0.78198868 -0.081337392 2.0468142
0.76436877 -0.081031568 2.0427506
0.75879723 -0.082016028 2.0714121
0.74014008 -0.081597179 2.0643153
0.71800447 -0.080769978 2.0466793
0.70420206 -0.080865264 2.0524871
0.68940961 -0.080848508 2.055357
0.67244953 -0.080571301 2.0514684
0.65769655 -0.080552094 2.054111
0.64116436 -0.080309168 2.0509214
0.62905324 -0.080621593 2.0619483
0.60776514 -0.079744756 2.0422375
0.59369105 -0.079794817 2.0463402
0.58094108 -0.080029778 2.0551572
0.5557214 -0.078514986 2.0185885
0.54181546 -0.07856106 2.0223351
0.52738523 -0.078531563 2.0240512
0.51807338 -0.079283714 2.0460179
0.50232637 -0.079065867 2.0427101
0.48872265 -0.079182498 2.0480349
0.47775465 -0.079746127 2.0649576
0.45811546 -0.078852385 2.0437827
0.44825444 -0.079638332 2.0663991
0.4275153 -0.078479648 2.0381026
0.41191196 -0.078216478 2.033134
0.39715818 -0.078101605 2.0319726
0.38280705 -0.078060351 2.0326703
0.37200299 -0.078766994 2.052937
0.3520911 -0.07752461 2.0219469
0.33883107 -0.077704482 2.028245
0.32299411 -0.077283338 2.0186656
0.30790371 -0.077010758 2.0129178
0.29333654 -0.076849401 2.0100265
0.27936909 -0.076836899 2.0109904
0.24892789 -0.072054602 1.8860215
0.1970914 -0.060207199 1.5742977
0.17810376 -0.057594158 1.506129
0.16793314 -0.05768453 1.5092955
0.15700905 -0.057510916 1.5054355
0.14681619 -0.057599504 1.5084605
0.13605496 -0.057461593 1.5054456
0.1255883 -0.057435546 1.5053425
0.11505378 -0.057370972 1.504171
0.10495281 -0.057531212 1.5089083
0.0942977 -0.057389535 1.5055995
0.083692506 -0.05724689 1.5022162
0.073330611 -0.057253867 1.5027518
0.062882401 -0.057184637 1.5012202
0.052562159 -0.057227418 1.5026127
0.042281259 -0.057344589 1.5059325
0.031810809 -0.057197273 1.5021894
0.021506352 -0.057350267 1.5063678
0.011124386 -0.057389379 1.5074784
0.00072680548 -0.057314593 1.5055202
-0.0096371789 -0.057201225 1.502492
-0.020012431 -0.057237566 1.5033902
-0.030440331 -0.057348277 1.5062155
-0.04069322 -0.057156842 1.5009775
-0.051010452 -0.057115104 1.4996659
-0.061554249 -0.057298355 1.504275
-0.071785174 -0.057179492 1.5008252
-0.082242087 -0.057247922 1.5022956
-0.092600539 -0.057240169 1.5016992
-0.10308992 -0.05730674 1.503026
-0.1130801 -0.057109039 1.4973044
-0.12348462 -0.057136178 1.4974937
-0.13424917 -0.057312831 1.5015931
-0.14450599 -0.057262927 1.4996473
-0.15535234 -0.057437673 1.5035965
-0.16517462 -0.057235617 1.4975343
-0.17595837 -0.057370912 1.5003426
-0.18629998 -0.057355009 1.4991071
-0.19663279 -0.057338215 1.4978009
-0.2066853 -0.057245467 1.4944441
-0.21840848 -0.057602208 1.50289
-0.22951132 -0.05777026 1.5063052
-0.23942474 -0.057637323 1.5017428
-0.25058666 -0.057803497 1.5050043
-0.26146579 -0.05789372 1.5062137
-0.27114156 -0.057720806 1.50046
-0.28257772 -0.057921585 1.5044696
-0.29218781 -0.05774707 1.4985815
-0.30408365 -0.058020767 1.5043918
-0.31668088 -0.058405522 1.5130455
-0.33087665 -0.059050702 1.5284373
-0.44339845 -0.076653861 1.9866554
-0.46574283 -0.078071624 2.0215755
-0.47963923 -0.078031443 2.0183499
-0.49917868 -0.078885332 2.0383339
-0.50785249 -0.078022376 2.013552
-0.52742928 -0.078835845 2.0322962
-0.53935504 -0.078492969 2.0209203
-0.55745035 -0.079042494 2.0326178
-0.57062048 -0.07888364 2.0258768
-0.58648229 -0.079095542 2.0286565
-0.60071748 -0.079083197 2.0255618
-0.61753809 -0.079403877 2.030978
-0.62235814 -0.078202024 1.9971155
-0.64786971 -0.079595789 2.0299699
-0.67047065 -0.08057905 2.0521109
-0.68239045 -0.080264084 2.0408406
-0.69933009 -0.080540374 2.0446436
-0.70226538 -0.079225473 2.0077155
-0.72778839 -0.080460429 2.0358276
-0.74181092 -0.08040043 2.0308006
-0.76204848 -0.081003368 2.0425448
-0.77718359 -0.081051409 2.0400848
-0.79304409 -0.081171907 2.039377
-0.79831541 -0.080223903 2.0115821
-0.80883598 -0.079827853 1.9977201
-0.83209121 -0.080680497 2.0152478
-0.85639918 -0.081604019 2.0343926
-0.8645674 -0.080984384 2.0146811
-0.88563985 -0.081573993 2.0252039
-0.8923524 -0.0808433 2.0026276
-0.91480803 -0.081539437 2.0155897
-0.94290483 -0.082708277 2.0401435
-0.94474447 -0.081573389 2.0073607
-0.96206057 -0.081789181 2.0080411
-0.97160029 -0.081347346 1.9923848
-1.0030496 -0.082725696 2.0215175
-1.0103301 -0.08209949 2.0011668
-1.0282744 -0.082345441 2.0021796
-1.0472056 -0.082662247 2.0048122
-1.0475864 -0.081526488 1.9719146
-1.0622045 -0.081514888 1.9664114
-1.0877993 -0.082334414 1.9809815
-1.0889562 -0.081307113 1.9507036
-1.107891 -0.081616901 1.9527251
-1.1199632 -0.081419639 1.9424309
-1.1234138 -0.080608875 1.9173732
-1.1108242 -0.078682743 1.8656831
-1.1248267 -0.078665137 1.859679
-1.1424432 -0.078897566 1.8595421
-1.1359246 -0.077478074 1.8201575
-1.1448736 -0.077135347 1.8063362
-1.1337986 -0.075468034 1.7613065
-1.1357449 -0.074696869 1.7374845
-1.1467559 -0.074533023 1.7279127
-1.1415975 -0.073334277 1.6941689
-1.1578983 -0.073525771 1.692842
1.4055002 -0.10405198 2.0227919
1.3930261 -0.10431293 2.0349555
1.3715616 -0.10389891 2.0337577
1.3259854 -0.10162714 1.9956583
1.3310722 -0.10323048 2.0341139
1.3168498 -0.10335689 2.0432742
1.2935153 -0.10276247 2.0379627
1.2724289 -0.10233419 2.0358214
1.2701867 -0.10342966 2.0641789
1.2382696 -0.10210592 2.0437963
1.2082275 -0.10090482 2.0256491
1.1996267 -0.10148647 2.0434401
1.1804051 -0.1011731 2.0430055
1.1646895 -0.10115588 2.0484922
1.1276199 -0.099258512 2.015424
1.1226801 -0.10017614 2.0398109
1.1075313 -0.10019566 2.0457404
1.1058975 -0.10145559 2.0771723
1.0591981 -0.09855815 2.0226843
1.0605879 -0.10011625 2.0601768
1.033263 -0.09896975 2.041537
1.0142125 -0.098593444 2.0387425
1.0070307 -0.099376984 2.0600502
0.9884305 -0.099040478 2.0579059
0.97033662 -0.098744996 2.0565064
0.94104183 -0.097282223 2.030448
0.94094443 -0.09883929 2.0678186
0.92094278 -0.098322317 2.0614421
0.90825528 -0.098582014 2.071377
0.87782103 -0.096891671 2.0398886
0.86639988 -0.097277857 2.0523102
0.85371464 -0.097533159 2.0618968
0.83832932 -0.097483575 2.064919
0.81817508 -0.096867606 2.0557466
0.80324006 -0.096858196 2.0594385
0.77943951 -0.09575925 2.0396681
0.76604044 -0.095920518 2.0468285
0.74985176 -0.095731959 2.0463891
0.73538369 -0.095759928 2.0505297
0.71892619 -0.095524684 2.0489075
0.70091778 -0.095069319 2.0424271
0.68808514 -0.095311515 2.0509624
0.67331666 -0.095290259 2.0537181
0.66187418 -0.095749229 2.0668402
0.63932967 -0.094586521 2.0445981
0.62262529 -0.09425389 2.0403128
0.6119557 -0.094840728 2.0560148
0.5933606 -0.094197936 2.044786
0.57980835 -0.094343625 2.0507135
0.55593395 -0.092774197 2.0189676
0.54073882 -0.09260875 2.0178885
0.53183979 -0.093541779 2.0408764
0.51656437 -0.093373947 2.0396144
0.50038463 -0.093028411 2.0343573
0.48798656 -0.093386292 2.0445294
0.47077718 -0.092817239 2.0341802
0.46132779 -0.09379033 2.0578237
0.44337508 -0.093041651 2.0433438
0.42869726 -0.092953272 2.0433869
0.41266131 -0.092554204 2.0364699
0.39635977 -0.092065006 2.0274687
0.3818531 -0.091971971 2.027179
0.36701542 -0.091789022 2.0248206
0.35665211 -0.092755117 2.0479496
0.33977965 -0.092038326 2.0335803
0.32500058 -0.091851018 2.0309172
0.30832434 -0.091086268 2.0153081
0.29330862 -0.090762764 2.0094547
0.27934244 -0.090747975 2.0104189
0.24838531 -0.08492247 1.8815234
0.19756432 -0.071284935 1.5778154
0.17808668 -0.068021365 1.5057006
0.16758883 -0.067994937 1.5058872
0.15709656 -0.06796743 1.5060011
0.14670624 -0.067983247 1.5070376
0.13630895 -0.067998007 1.5080031
0.12590513 -0.068011694 1.5088977
0.11541987 -0.067979887 1.508725
0.10507994 -0.068035841 1.5104735
0.094659552 -0.068046309 1.5111551
0.084179565 -0.068011224 1.5107677
0.07366097 -0.067930602 1.509311
0.063124664 -0.067804396 1.5067836
0.052557055 -0.067588151 1.5021868
0.042277154 -0.06772653 1.5055058
0.03193336 -0.067819372 1.5077565
0.021433666 -0.067510866 1.5009465
0.011108708 -0.067690477 1.5050534
0.00072577997 -0.06760215 1.5030957
-0.0096489294 -0.067646161 1.5040643
-0.020036815 -0.067689069 1.504962
-0.030437369 -0.067730881 1.5057886
-0.040796485 -0.067682676 1.5045468
-0.05093826 -0.067366578 1.4972441
-0.061629154 -0.067760848 1.505845
-0.07182546 -0.067576006 1.5013976
-0.08234226 -0.067701288 1.5038649
-0.092591584 -0.067603223 1.5012732
-0.10287689 -0.067548536 1.4996092
-0.11336713 -0.067626096 1.5008646
-0.12371656 -0.067613706 1.5000559
-0.13379584 -0.067467004 1.4961911
-0.14515617 -0.067940973 1.5061824
-0.15543906 -0.067880921 1.504163
-0.165701 -0.067819834 1.5020741
-0.17582627 -0.067713328 1.4989234
-0.18603815 -0.067650206 1.4966973
-0.19648524 -0.067674756 1.4963835
-0.20802076 -0.068052918 1.5039159
-0.2173918 -0.067720674 1.4955397
-0.2291915 -0.068140805 1.5038998
-0.24002504 -0.068249561 1.5052612
-0.25040045 -0.068224415 1.5035884
-0.26025659 -0.068065464 1.498891
-0.27181974 -0.068348005 1.5039643
-0.28218585 -0.068319745 1.5020744
-0.29310712 -0.068423115 1.5030566
-0.30425119 -0.068569548 1.5049399
-0.31462407 -0.068538189 1.5028285
-0.33042702 -0.069653511 1.5260441
-0.43990016 -0.089826114 1.9704789
-0.45879537 -0.09083949 1.9908038
-0.47913608 -0.092070907 2.0158246
-0.49417657 -0.092242479 2.0173609
-0.51217288 -0.092940867 2.0304158
-0.53211617 -0.093945198 2.0500908
-0.54314309 -0.093363866 2.0348215
-0.55766183 -0.093397215 2.0329933
-0.57433456 -0.0937806 2.0387592
-0.58615327 -0.093372039 2.027107
-0.60150927 -0.093533009 2.027848
-0.61517274 -0.093429402 2.0227349
-0.63735759 -0.094595253 2.0452087
-0.65475106 -0.095013909 2.0512819
-0.667328 -0.094730601 2.0420074
-0.67949665 -0.094402641 2.0317085
-0.69573426 -0.094641879 2.0336373
-0.71268809 -0.094966777 2.0373254
-0.72705519 -0.094940864 2.0333443
-0.74106377 -0.094870098 2.0283222
-0.76232791 -0.095712982 2.0428772
-0.76792645 -0.09459433 2.0151837
-0.78002161 -0.09430258 2.005218
-0.81069475 -0.096226603 2.0425873
-0.82627362 -0.096322216 2.0406928
-0.83845901 -0.096025817 2.0303602
-0.85247195 -0.095945358 2.0245647
-0.87310535 -0.096600093 2.0342965
-0.88476658 -0.096256889 2.0227609
-0.90076077 -0.096388601 2.0212104
-0.90980351 -0.09578421 2.0040483
-0.91699177 -0.095006883 1.9832245
-0.94635355 -0.09651529 2.0103703
-0.94781744 -0.095175818 1.977654
-0.9845736 -0.097367153 2.0187528
-0.99325061 -0.096757673 2.0011795
-1.0111375 -0.097050101 2.0023375
-1.0195638 -0.09643919 1.9846495
-1.0374572 -0.096728422 1.9855653
-1.0600766 -0.097443916 1.995164
-1.0687209 -0.096872754 1.9781264
-1.080533 -0.096600458 1.9672035
-1.1082276 -0.097736247 1.9850498
-1.1175981 -0.097247243 1.9695227
-1.1129191 -0.09556473 1.9296775
-1.1082513 -0.093926877 1.8908542
-1.1056461 -0.092503652 1.8564881
-1.1211299 -0.092610702 1.8530892
-1.119465 -0.09131626 1.8214091
-1.135825 -0.091505945 1.8195735
-1.1213778 -0.089239351 1.7685363
-1.1353114 -0.08925873 1.7632638
-1.1503159 -0.089360841 1.7595584
-1.1494004 -0.088238403 1.7315234
-1.1420512 -0.086653918 1.6944461
-1.1639628 -0.087300509 1.7013834
1.4036528 -0.11985312 2.0195494
1.4035488 -0.12122066 2.0498743
1.378088 -0.12040455 2.042943
1.3527944 -0.11958398 2.0357573
1.3293029 -0.11890512 2.0308318
1.3183296 -0.11934313 2.0450284
1.3034998 -0.11943846 2.0532534
1.2612399 -0.11699174 2.0172369
1.2617253 -0.11849845 2.0497725
1.2350543 -0.11746053 2.0379009
1.2284598 -0.1183299 2.0592759
1.2070485 -0.11777608 2.0556295
1.1812791 -0.11677684 2.0439863
1.1714447 -0.11734729 2.0599174
1.1522378 -0.11698156 2.0592177
1.1263974 -0.11592315 2.0460789
1.1149845 -0.11634078 2.059073
1.0955164 -0.11591782 2.0569937
1.0802817 -0.11593714 2.0627182
1.0591167 -0.11531134 2.0567667
1.0452654 -0.11547514 2.0648997
1.0211859 -0.11449701 2.0523407
1.004312 -0.11430943 2.0539236
0.9879002 -0.11416947 2.0562716
0.96430647 -0.11318217 2.0431137
0.94887775 -0.11313711 2.0469677
0.93468034 -0.11323978 2.0534348
0.91882426 -0.11314157 2.0561509
0.9073652 -0.11359054 2.0688171
0.88557875 -0.11273997 2.0575421
0.8728742 -0.11303619 2.067251
0.8524881 -0.1123306 2.0584059
0.82480139 -0.11062073 2.0308518
0.81368667 -0.11111169 2.0438857
0.79991138 -0.11125082 2.0503418
0.7846728 -0.11118782 2.0529692
0.76978749 -0.11117341 2.0564196
0.75045693 -0.11050389 2.0475609
0.73497248 -0.11038528 2.0488839
0.72082251 -0.11046635 2.0538628
0.70470959 -0.11024369 2.0530715
0.68548846 -0.109515 2.0426807
0.67850095 -0.11075157 2.0691614
0.65696287 -0.10961524 2.0509069
0.63659751 -0.10862744 2.0353177
0.62313867 -0.10879965 2.0415311
0.60792863 -0.10866702 2.0419085
0.59302115 -0.10858335 2.0431337
0.57866722 -0.10859933 2.0461738
0.56114107 -0.10800562 2.0375531
0.54838294 -0.10832252 2.0461621
0.53453428 -0.1084353 2.0508246
0.51918763 -0.10824203 2.0495825
0.50838536 -0.10901215 2.0666609
0.49138784 -0.10846008 2.0584199
0.47519878 -0.10805847 2.0529652
0.4619287 -0.10831627 2.0600593
0.4452197 -0.10775831 2.0514472
0.42885423 -0.10724916 2.0436819
0.41537362 -0.10745127 2.0494971
0.4006924 -0.10734614 2.0493417
0.38566607 -0.10713734 2.0471191
0.36803618 -0.10616153 2.0300436
0.35474131 -0.1064082 2.0364432
0.33794457 -0.10558131 2.0220666
0.32324117 -0.10536509 2.019393
0.30739054 -0.10473838 2.0087149
0.29370567 -0.10482514 2.0117531
0.27972075 -0.10480813 2.0127203
0.24887639 -0.098141052 1.8848605
0.19717348 -0.082055561 1.5743185
0.17818296 -0.078496501 1.5061927
0.16811696 -0.078670762 1.5103511
0.15759198 -0.078639105 1.5104691
0.14678562 -0.07845255 1.5075322
0.13620462 -0.078367129 1.5065089
0.1256443 -0.078280427 1.5054121
0.11540689 -0.078397423 1.5082257
0.10493085 -0.078359462 1.5079812
0.094401583 -0.078268982 1.5066681
0.08395002 -0.078228503 1.5062796
0.073604435 -0.078289285 1.5078143
0.062993363 -0.078041181 1.5032918
0.052793127 -0.078304581 1.5086769
0.042161345 -0.077900074 1.5010151
0.03190881 -0.078160986 1.5062597
0.021487713 -0.078061648 1.504445
0.011129346 -0.078217492 1.5075521
0.00072617526 -0.07801304 1.5035977
-0.0096732108 -0.07821767 1.5075619
-0.020060875 -0.078164577 1.5064617
-0.03031403 -0.077802509 1.4993004
-0.040818673 -0.078105912 1.5050479
-0.051235072 -0.078151621 1.5057321
-0.061622191 -0.078144789 1.5053471
-0.072148085 -0.078290515 1.5078838
-0.082116723 -0.077871047 1.4993784
-0.092520267 -0.077911757 1.4997797
-0.10313601 -0.078104973 1.5030988
-0.11350332 -0.078091905 1.5023597
-0.12337754 -0.077770218 1.4955776
-0.13395694 -0.077908419 1.4976851
-0.14513989 -0.078352585 1.5056835
-0.15552332 -0.07833454 1.504658
-0.16535716 -0.078059345 1.4985976
-0.17592186 -0.078141265 1.4994183
-0.18674928 -0.078324258 1.5021476
-0.19749331 -0.078454778 1.5038095
-0.20772663 -0.078379504 1.5014372
-0.21907476 -0.078711964 1.5069044
-0.23006012 -0.078889705 1.5093243
-0.24031003 -0.078810751 1.5067329
-0.24972291 -0.078475371 1.4991457
-0.26107392 -0.078751504 1.5033123
-0.27161396 -0.078771152 1.5024791
-0.2827028 -0.078942589 1.5045182
-0.293643 -0.079061747 1.5054958
-0.30559009 -0.07943438 1.5112911
-0.31479251 -0.079092503 1.5033031
-0.3306005 -0.080378741 1.526509
-0.44028455 -0.10369366 1.971769
-0.4658719 -0.10638795 2.0212908
-0.48137778 -0.10668904 2.0248685
-0.49388745 -0.10632786 2.0157127
-0.50823635 -0.10637172 2.0142319
-0.52632737 -0.1071752 2.0271564
-0.54385245 -0.10782411 2.0370312
-0.56180072 -0.10852145 2.0477247
-0.567011 -0.1067849 2.0121009
-0.58498895 -0.10747899 2.0225809
-0.60172778 -0.10791775 2.0281184
-0.61597371 -0.10789939 2.0249164
-0.63079649 -0.10798061 2.0235224
-0.64623487 -0.10816122 2.0239251
-0.66232675 -0.10844101 2.0261104
-0.67911094 -0.10881978 2.030066
-0.690844 -0.10839026 2.018755
-0.7021296 -0.10790951 2.0064356
-0.72664559 -0.10944066 2.0317037
-0.72770643 -0.10744845 1.9910065
-0.75218743 -0.10892446 2.0150125
-0.77244085 -0.10974406 2.0266304
-0.78461802 -0.1094071 2.0166349
-0.80658394 -0.11042251 2.0316563
-0.82656127 -0.11113424 2.0409088
-0.8379941 -0.11069231 2.0287273
-0.85585123 -0.11109957 2.0321498
-0.86557776 -0.11045548 2.0161254
-0.89024532 -0.11170769 2.0348754
-0.89582008 -0.11056235 2.0095375
-0.91381437 -0.11096207 2.0124464
-0.92772973 -0.11086165 2.0061233
-0.94921696 -0.11165507 2.01599
-0.95973384 -0.11115348 2.0022037
-0.97707498 -0.11144548 2.0027502
-0.99094284 -0.11133853 1.995983
-1.0123775 -0.11207237 2.004297
-1.0212752 -0.11141719 1.9874939
-1.035053 -0.11130553 1.9804149
-1.0459915 -0.110896 1.9679378
-1.0766367 -0.1125581 1.9923712
-1.0933312 -0.11273616 1.9901642
-1.0916556 -0.1110408 1.954621
-1.1179746 -0.11220028 1.9696705
-1.1262015 -0.11153737 1.9523729
-1.1016114 -0.10768378 1.8789318
-1.1197591 -0.10805319 1.8798782
-1.1297534 -0.10763641 1.866959
-1.1318285 -0.106485 1.8411975
-1.1351831 -0.10548095 1.8180431
-1.1467824 -0.10525815 1.8084584
-1.1308948 -0.10254825 1.7558641
-1.1344413 -0.10164417 1.7345873
-1.14434 -0.10132384 1.723357
-1.1380491 -0.099594153 1.6879866
-1.1576755 -0.10014627 1.6916393
1.394413 -0.13489719 2.0055149
1.3781216 -0.13485233 2.0118201
1.3751472 -0.13612469 2.0379062
1.3449372 -0.1346992 2.0232065
1.3449241 -0.13630012 2.054234
1.3160219 -0.13497655 2.0407841
1.2948287 -0.13442105 2.0388577
1.2921588 -0.13579856 2.066426
1.2704294 -0.1351824 2.0633819
1.2410874 -0.13373038 2.0473018
1.2293346 -0.13416071 2.0601225
1.2149541 -0.13431175 2.068563
1.1940615 -0.13373733 2.0656433
1.1713089 -0.13293657 2.0590541
1.14871 -0.13213183 2.052248
1.1233935 -0.13098824 2.0399699
1.1139097 -0.13168457 2.056459
1.0949228 -0.13126127 2.0552595
1.0769324 -0.13094707 2.055666
1.0644481 -0.13130295 2.0665882
1.0321417 -0.12918825 2.0381818
1.0206252 -0.12965147 2.0506055
1.0024514 -0.12927021 2.0494926
0.9929437 -0.13001196 2.0662482
0.96970177 -0.12895048 2.0540376
0.95502853 -0.12901284 2.0597434
0.9304601 -0.12771897 2.0435078
0.91871727 -0.12817207 2.0553226
0.89928705 -0.12754992 2.0496788
0.89018321 -0.12839612 2.0677345
0.87006998 -0.12765616 2.059979
0.85846317 -0.12816021 2.0723588
0.84038484 -0.12769888 2.0689337
0.81432503 -0.12598595 2.0449309
0.80522627 -0.1268823 2.0634942
0.78635144 -0.12624292 2.0568249
0.76621848 -0.12537314 2.0462499
0.74900258 -0.12495593 2.0430019
0.73488522 -0.12504932 2.0480783
0.72862089 -0.12651004 2.0756836
0.71589708 -0.12688665 2.0853429
0.69077116 -0.12503439 2.0579844
0.6744017 -0.12472109 2.0560129
0.66021246 -0.12480603 2.0605738
0.64421844 -0.12454592 2.0593162
0.63261789 -0.12514286 2.072268
0.61210001 -0.12396221 2.0554781
0.59820163 -0.1240973 2.0605698
0.58129555 -0.12359961 2.0549948
0.55817664 -0.12172162 2.0261736
0.55216664 -0.12357388 2.0598452
0.53196788 -0.12226503 2.0403702
0.51888049 -0.12256335 2.0478261
0.49742684 -0.12084617 2.021255
0.48649237 -0.12165876 2.037231
0.47491652 -0.12235522 2.0512059
0.46469179 -0.1234541 2.0719395
0.44600552 -0.12230338 2.0545669
0.42981893 -0.12178437 2.0477879
0.41512489 -0.12166712 2.0477364
0.4014034 -0.12183668 2.0524809
0.38726965 -0.12188904 2.0551713
0.3686974 -0.12049486 2.0332017
0.35418639 -0.12036965 2.0327182
0.33757523 -0.11949065 2.0193288
0.3217904 -0.11884063 2.0097528
0.30840117 -0.1190565 2.0148621
0.29610261 -0.11973391 2.0277867
0.27941239 -0.11861449 2.00998
0.24819639 -0.11088793 1.8791972
0.19727132 -0.093013346 1.5747125
0.17862481 -0.089155413 1.509588
0.16743931 -0.088773027 1.5038248
0.1576744 -0.08914303 1.51089
0.14676681 -0.088873699 1.5069616
0.13645418 -0.088950977 1.5089216
0.12587482 -0.088852786 1.5078273
0.1155429 -0.088927299 1.5096461
0.10498596 -0.088826239 1.508407
0.094080359 -0.08837536 1.5011168
0.083774187 -0.088445589 1.50272
0.073739544 -0.088862911 1.5102361
0.063233539 -0.088756114 1.5087087
0.053028297 -0.089112625 1.5150911
0.042350177 -0.088654414 1.5074338
0.031925626 -0.088601403 1.5066892
0.0215414 -0.088663168 1.5078696
0.01112061 -0.088549212 1.5059847
0.00072703609 -0.088491917 1.5050267
-0.0096592754 -0.088491291 1.5049962
-0.020058282 -0.088547364 1.5058931
-0.03046996 -0.088602006 1.506719
-0.040813401 -0.088480905 1.5044795
-0.0513293 -0.088706978 1.5081569
-0.061573811 -0.088466875 1.503781
-0.071949817 -0.088457741 1.5033257
-0.08216019 -0.088272944 1.4998085
-0.093238689 -0.088957816 1.5111704
-0.10278441 -0.088189609 1.4975504
-0.11341427 -0.088407062 1.5007961
-0.12368676 -0.088332847 1.498992
-0.13464426 -0.088721469 1.5050737
-0.14502646 -0.08870244 1.5041198
-0.15560505 -0.088798024 1.5050812
-0.16566129 -0.08860223 1.5010068
-0.17555384 -0.088347197 1.4958748
-0.1861157 -0.088438645 1.4966236
-0.19630966 -0.088354863 1.4943286
-0.20864867 -0.089196473 1.5077904
-0.21918921 -0.089225583 1.5073197
-0.23003104 -0.089369066 1.5087506
-0.23934536 -0.088932469 1.5002431
-0.25034127 -0.08913108 1.502515
-0.26137942 -0.089328192 1.5047072
-0.27228343 -0.089466028 1.5058367
-0.28284997 -0.089486852 1.5049251
-0.2932277 -0.089448594 1.5029601
-0.30437607 -0.089639932 1.5048398
-0.31698278 -0.090233617 1.5134804
-0.33328098 -0.091805778 1.538614
-0.44411826 -0.11850567 1.9885589
-0.45713043 -0.11827361 1.9825619
-0.48085982 -0.12074637 2.0221486
-0.49736586 -0.12131565 2.0294898
-0.51108485 -0.12119235 2.025079
-0.52900392 -0.12204473 2.0370104
-0.54301882 -0.12197518 2.0333514
-0.55123764 -0.1206407 2.0084043
-0.57232106 -0.12211804 2.0305519
-0.58381599 -0.12152725 2.0179598
-0.60109091 -0.1221391 2.0254169
-0.61791974 -0.12263392 2.0308204
-0.62776923 -0.1217526 2.0131984
-0.65128547 -0.12350211 2.0393155
-0.66378838 -0.12313247 2.0300682
-0.6472494 -0.11750613 1.9335765
-0.68787146 -0.12227546 2.0094569
-0.71154636 -0.12389889 2.0329981
-0.72555715 -0.12380823 2.0280828
-0.73000365 -0.12212113 1.9967922
-0.76354653 -0.12527275 2.0451109
-0.76952326 -0.12386804 2.0183587
-0.78164792 -0.1234867 2.0083852
-0.80685514 -0.12514843 2.0317783
-0.8171531 -0.12447956 2.0169392
-0.83372933 -0.12477378 2.0177574
-0.8488189 -0.12483919 2.0147572
-0.87017393 -0.12580824 2.0263391
-0.87781149 -0.12479478 2.0056696
-0.90137202 -0.12604114 2.0215104
-0.92355478 -0.1270577 2.0334787
-0.92928797 -0.12581488 2.0089409
-0.94741571 -0.12626277 2.011554
-0.96005148 -0.12597622 2.0022905
-0.9887113 -0.1277691 2.0261948
-0.99347615 -0.12646666 2.0005398
-1.0167353 -0.12752219 2.0123997
-1.021157 -0.12621871 1.9866761
-1.039071 -0.12659633 1.9875737
-1.0426093 -0.12523654 1.9609414
-1.040172 -0.12320675 1.9237953
-1.0516177 -0.12285452 1.9130728
-1.0847523 -0.12501132 1.9415786
-1.0796195 -0.12275932 1.9009925
-1.0923381 -0.1225697 1.8926296
-1.100479 -0.12187805 1.8764125
-1.092705 -0.11946417 1.8335255
-1.0854237 -0.11716464 1.7925469
-1.1254581 -0.11996624 1.830183
-1.1334733 -0.11932766 1.8147188
-1.1338899 -0.11791455 1.7873975
-1.1205509 -0.11512227 1.7391189
-1.1370242 -0.11542289 1.738026
-1.1370676 -0.1140682 1.7117672
-1.1423532 -0.11326481 1.6938925
-1.1569778 -0.11339522 1.6900734
1.4191742 -0.15340677 2.0406692
1.3807443 -0.15096684 2.0149581
1.3649647 -0.15097548 2.0219824
1.3398107 -0.14993528 2.0147219
1.3322346 -0.15086083 2.0339887
1.3196152 -0.15123069 2.0456793
1.3031753 -0.15116639 2.0513816
1.2846184 -0.15085188 2.0535612
1.2603712 -0.14985299 2.0462132
1.2347485 -0.14866322 2.036062
1.2164547 -0.14833669 2.0376749
1.2017223 -0.14844158 2.0451653
1.1909243 -0.14904164 2.0594723
1.1652658 -0.1477731 2.0476549
1.143227 -0.14693557 2.0416868
1.1160654 -0.14540768 2.0258782
1.107619 -0.14630957 2.0440712
1.0957134 -0.14677343 2.0560665
1.0772527 -0.14635995 2.0555966
1.0611283 -0.14625652 2.0594108
1.0459048 -0.14627606 2.0648825
1.0218186 -0.14503817 2.0523455
1.0036286 -0.14461242 2.0512447
0.99152493 -0.145064 2.0626001
0.97423452 -0.14475901 2.0630398
0.95156497 -0.1436324 2.051553
0.93362719 -0.14319524 2.0498545
0.92021638 -0.14344944 2.0580401
0.89797336 -0.14231238 2.0460072
0.88771272 -0.14306794 2.0612962
0.86918372 -0.14249399 2.0572116
0.85683149 -0.14293033 2.0677369
0.84363365 -0.14323862 2.0763373
0.81862062 -0.14151563 2.0551543
0.79682696 -0.14029574 2.0411711
0.76995546 -0.13811897 2.0129905
0.77411515 -0.14153205 2.0668559
0.7485615 -0.13953991 2.0411587
0.72273046 -0.13741547 2.013329
0.71932662 -0.13955547 2.0483811
0.70581931 -0.13978361 2.0551419
0.69320261 -0.14020157 2.0646536
0.6724568 -0.13895783 2.049417
0.6549803 -0.13834947 2.043504
0.64235526 -0.13876152 2.0526969
0.62413704 -0.13795643 2.0436671
0.61371458 -0.13887712 2.0603237
0.59950221 -0.13896419 2.0644674
0.58283532 -0.13847242 2.059866
0.56283897 -0.13714422 2.0426207
0.55414426 -0.13857239 2.0666671
0.53739625 -0.13800946 2.0607407
0.52124351 -0.13757242 2.0566182
0.50801575 -0.13790445 2.0640056
0.48964787 -0.13681968 2.0499461
0.4750742 -0.13676156 2.0512948
0.45703518 -0.13567115 2.0369551
0.44405112 -0.1360594 2.0449035
0.43301615 -0.13709055 2.0625393
0.41821718 -0.13695997 2.0625107
0.40077642 -0.13592413 2.0486622
0.38317785 -0.13475625 2.032711
0.36988309 -0.13507044 2.0392063
0.35447654 -0.13460773 2.0338154
0.34014145 -0.13453035 2.0342171
0.32566085 -0.13438623 2.0335331
0.31105566 -0.1341753 2.0317607
0.29391304 -0.13279787 2.0121081
0.28141871 -0.13348807 2.0239513
0.24984646 -0.12472667 1.891259
0.20092985 -0.10585787 1.6037498
0.17813472 -0.09934634 1.5049796
0.16818073 -0.099631622 1.5101269
0.1577543 -0.099656314 1.5112386
0.14703305 -0.099485017 1.5092995
0.13643451 -0.099376909 1.5082792
0.12593888 -0.099332049 1.5081801
0.11537539 -0.09922073 1.5070137
0.10510802 -0.099367239 1.5097564
0.094684809 -0.099382482 1.5104381
0.084257044 -0.099396132 1.5110486
0.073391534 -0.098824225 1.5026171
0.063265756 -0.099224024 1.5090649
0.052882347 -0.099297799 1.5104581
0.042455021 -0.099305101 1.5107836
0.031962853 -0.099116087 1.5080447
0.021524159 -0.098990344 1.5062315
0.011118996 -0.098927945 1.5053451
0.00072883978 -0.099123597 1.5083791
-0.0096578738 -0.098863252 1.5043572
-0.020042211 -0.098860987 1.5042558
-0.030445555 -0.098922022 1.5050813
-0.040914658 -0.099111274 1.5078306
-0.051355459 -0.09916912 1.5085133
-0.061605308 -0.098900877 1.5041391
-0.072128326 -0.099085331 1.5066738
-0.082364485 -0.098878883 1.5031569
-0.092799231 -0.098930389 1.5035555
-0.10317549 -0.09891542 1.502887
-0.1133979 -0.09876921 1.5001575
-0.12440021 -0.099269874 1.5073051
-0.13471289 -0.099185333 1.5054269
-0.1445314 -0.098775193 1.4985121
-0.15466808 -0.098622873 1.4955055
-0.16531232 -0.098793 1.4973911
-0.17679562 -0.099414855 1.5061404
-0.18730852 -0.099452108 1.5058892
-0.19834095 -0.099746719 1.5095237
-0.20861891 -0.099651344 1.5071465
-0.21887358 -0.099554494 1.5046999
-0.23029625 -0.099973544 1.5100785
-0.24008988 -0.099679671 1.5045291
-0.25111797 -0.099901482 1.5067943
-0.26168081 -0.099927813 1.5060289
-0.27523485 -0.10105032 1.5218897
-0.28573141 -0.10100862 1.5199759
-0.29943258 -0.1020622 1.5346475
-0.31413162 -0.10337132 1.5531166
-0.33456865 -0.10641806 1.5978389
-0.37572607 -0.11564536 1.7360226
-0.45096785 -0.13445701 2.0188797
-0.46886659 -0.13554838 2.0332646
-0.48148102 -0.13509278 2.0241897
-0.49753299 -0.13560012 2.0295827
-0.51198447 -0.13565519 2.0280752
-0.52643985 -0.13570824 2.0264654
-0.53936386 -0.13537419 2.0189652
-0.5561465 -0.13600084 2.0258262
-0.56552023 -0.1348297 2.0056438
-0.58125716 -0.13519585 2.0084484
-0.5970608 -0.13555965 2.0111318
-0.61321878 -0.13598511 2.0146482
-0.63063532 -0.13666393 2.0218508
-0.6457684 -0.13682869 2.0212989
-0.66154212 -0.13711907 2.0225327
-0.66887093 -0.13568398 1.9980739
-0.65695447 -0.13048621 1.9178615
-0.71210647 -0.13855 2.0339866
-0.72345638 -0.13793916 2.0215437
-0.73875791 -0.13809097 2.0202985
-0.75234538 -0.1379227 2.0142589
-0.77154076 -0.13876942 2.023061
-0.7919746 -0.13980338 2.0344865
-0.80199009 -0.13899405 2.0188012
-0.82002443 -0.13957858 2.023443
-0.83702821 -0.13997021 2.0251617
-0.83869523 -0.13782799 1.9899122
-0.86614573 -0.13992372 2.0162449
-0.8820709 -0.14011869 2.0148318
-0.89923406 -0.14050066 2.0160315
-0.91522932 -0.1406908 2.0143592
-0.92833358 -0.14043753 2.006212
-0.95320994 -0.14194518 2.0232925
-0.97150725 -0.14244179 2.0257051
-0.98423123 -0.14211857 2.0162828
-1.0079092 -0.1433631 2.0291593
-1.0143656 -0.14215747 2.0070102
-1.045064 -0.14433491 2.0328736
-1.0393953 -0.14149922 1.9875368
-1.0457342 -0.14035508 1.9662069
-1.0504178 -0.13902369 1.9422439
-1.0519587 -0.13731858 1.9130523
-1.0512159 -0.13536552 1.8804388
-1.0735989 -0.13640274 1.889662
-1.0698754 -0.13413948 1.8527601
-1.0797542 -0.13361831 1.8401533
-1.0859588 -0.13266169 1.8214828
-1.0765456 -0.12984557 1.777144
-1.0977626 -0.13074812 1.7841462
-1.0818095 -0.12725595 1.7306981
-1.111948 -0.12920471 1.7518976
-1.1032075 -0.12664333 1.7113611
-1.1243806 -0.12753604 1.7179213
-1.1253885 -0.12614737 1.6934265
-1.1383182 -0.12611179 1.6872541
-1.1147879 -0.12208419 1.6273004
1.4223648 -0.16990206 2.0444767
1.4074773 -0.17005463 2.0534532
1.3675404 -0.16714908 2.0250258
1.3610517 -0.16831151 2.0461009
1.3336705 -0.16688724 2.0353987
1.3091979 -0.16579702 2.028616
1.3216138 -0.16940872 2.0798149
1.2870626 -0.16701485 2.0567009
1.2544615 -0.16481742 2.0357609
1.2433172 -0.16541916 2.0495105
1.2218733 -0.16464844 2.0460365
1.2075806 -0.16483384 2.0544267
1.1832999 -0.16364285 2.0454121
1.1641153 -0.16313426 2.0448446
1.1445156 -0.16255301 2.043236
1.1111164 -0.15996911 2.0160701
1.11124 -0.16220675 2.0500381
1.0922887 -0.1616839 2.0488298
1.0757152 -0.16150306 2.0518806
1.0627922 -0.16187303 2.0619037
1.0394781 -0.16064796 2.0513461
1.0190182 -0.15983403 2.0459297
1.0069706 -0.16033493 2.0573766
0.99181098 -0.16034806 2.0624509
0.97366977 -0.15987206 2.0610898
0.96144187 -0.1603673 2.0722609
0.93719101 -0.15884076 2.0570004
0.91360581 -0.15737891 2.0424156
0.90262479 -0.15807573 2.0559535
0.88287675 -0.15723482 2.0492568
0.87060052 -0.15771851 2.0598631
0.85101271 -0.15687141 2.0528684
0.82074267 -0.15398987 2.0188737
0.81776673 -0.1562176 2.0522785
0.80355942 -0.15634258 2.057832
0.78223616 -0.15506165 2.0446351
0.7653082 -0.15461957 2.0424623
0.74469656 -0.15340133 2.0298431
0.74104065 -0.15569694 2.0640199
0.7182346 -0.15398057 2.0445509
0.70635813 -0.15458468 2.0560241
0.6880517 -0.15377739 2.0485039
0.67235625 -0.15353127 2.0484171
0.65881449 -0.15377694 2.0548656
0.64462662 -0.15387952 2.0593197
0.63012153 -0.15390939 2.0627215
0.61475366 -0.15372489 2.0631514
0.60328048 -0.15452906 2.0768864
0.5840959 -0.1533488 2.0636723
0.57012337 -0.15351157 2.0685747
0.54995382 -0.15197039 2.0502486
0.53706419 -0.15241203 2.0587835
0.52359807 -0.15270999 2.0653031
0.50746423 -0.15222476 2.0610769
0.48957264 -0.15116826 2.0489633
0.47544801 -0.1512462 2.0522563
0.45913342 -0.15061061 2.045717
0.4496583 -0.1522499 2.0702531
0.42867443 -0.14997186 2.041049
0.41677409 -0.15082429 2.0546823
0.40033355 -0.1500359 2.0457277
0.38660425 -0.15024292 2.0503719
0.36894134 -0.14887847 2.0333283
0.35425088 -0.14865251 2.0318658
0.34057799 -0.14885251 2.0362029
0.32404339 -0.14776488 2.0227177
0.31085673 -0.14817451 2.0298111
0.29529795 -0.1474387 2.0210257
0.27850997 -0.14598528 2.0022433
0.25628865 -0.14138205 1.9398125
0.2043384 -0.11896179 1.6307052
0.1801963 -0.11105239 1.5220982
0.16870062 -0.11043748 1.5143688
0.15916492 -0.11110914 1.5244133
0.14806306 -0.11070526 1.5195063
0.13739154 -0.11058598 1.5184939
0.12764475 -0.11125289 1.5283417
0.11709104 -0.11127347 1.5291767
0.10653171 -0.11129228 1.5299393
0.095967293 -0.11130934 1.5306302
0.086003162 -0.11211315 1.5422039
0.075499699 -0.11234183 1.5457431
0.064827643 -0.11235368 1.5462219
0.054152478 -0.11236372 1.5466278
0.043752145 -0.11308908 1.556931
0.033338979 -0.11424302 1.5731483
0.022494415 -0.11431946 1.5743361
0.011605952 -0.11410718 1.5714605
0.00077071803 -0.11582953 1.5954406
-0.01031571 -0.11668938 1.6073772
-0.021394212 -0.11661498 1.6062717
-0.033037294 -0.11861848 1.6340102
-0.044685435 -0.1196159 1.6477051
-0.057328753 -0.12233227 1.6852423
-0.068951279 -0.12232161 1.6848115
-0.081278905 -0.12338438 1.6992459
-0.094779581 -0.1257353 1.7315183
-0.10683888 -0.12586166 1.7328221
-0.12074667 -0.1279209 1.760911
-0.13310763 -0.12811452 1.7630299
-0.14802149 -0.13052689 1.7958803
-0.16250996 -0.13221997 1.8186729
-0.17760113 -0.13412513 1.8443304
-0.19244063 -0.13559778 1.8639127
-0.2104822 -0.13900013 1.9101492
-0.22340648 -0.13882077 1.9066871
-0.23982897 -0.14071387 1.9318467
-0.25583345 -0.14217469 1.9509367
-0.26912996 -0.1420595 1.9481572
-0.28453332 -0.14301433 1.960097
-0.29832512 -0.14310895 1.9600825
-0.31711164 -0.14548685 1.9914988
-0.33049473 -0.14529057 1.9873205
-0.34806377 -0.14687644 2.007628
-0.35766131 -0.14510588 1.9816422
-0.37184915 -0.14526002 1.9820974
-0.38492483 -0.14498416 1.9765762
-0.40656382 -0.14784135 2.0140023
-0.42407244 -0.14905581 2.0287611
-0.43740714 -0.14877212 2.0228939
-0.45392147 -0.14955378 2.0315473
-0.46679094 -0.14912356 2.0235403
-0.48301172 -0.14975779 2.030015
-0.49604145 -0.14939463 2.0227935
-0.50535882 -0.14796473 2.0009768
-0.52536303 -0.14965659 2.0216267
-0.5438844 -0.15084793 2.035347
-0.55920953 -0.15111437 2.0363977
-0.57215625 -0.15074086 2.0286889
-0.58612716 -0.1506488 2.0247333
-0.60148251 -0.15090853 2.0254662
-0.61658889 -0.15109511 2.0251288
-0.63408142 -0.15184462 2.0323026
-0.63843387 -0.14948413 1.9974948
-0.63741314 -0.14599574 1.9475445
-0.67097312 -0.15040773 2.0037239
-0.69634515 -0.15283848 2.0330882
-0.7083981 -0.15230626 2.0226245
-0.72034365 -0.15177274 2.0120912
-0.73898906 -0.15264407 2.0202413
-0.75466216 -0.15287971 2.0198123
-0.77072066 -0.15318304 2.0201952
-0.79149854 -0.15439576 2.0325484
-0.80370224 -0.15392217 2.0224388
-0.81692559 -0.15365733 2.015033
-0.8259238 -0.15262103 1.9973885
-0.84704328 -0.15382174 2.0091634
-0.85858417 -0.15327172 1.9978007
-0.87796623 -0.15411651 2.0046713
-0.90920115 -0.15698002 2.0378201
-0.92494053 -0.15711886 2.0351667
-0.93694359 -0.15662868 2.0242333
-0.94546402 -0.15558076 2.0060008
-0.96965092 -0.1571034 2.0210717
-0.99496502 -0.15875973 2.0376976
-1.0024686 -0.15756711 2.0173848
-1.0048238 -0.1556123 1.9872557
-1.0249579 -0.15642758 1.9927312
-1.0438414 -0.15703143 1.995365
-1.0348707 -0.15348704 1.9448978
-1.0460194 -0.15298374 1.9333246
-1.0551515 -0.15220335 1.9181858
-1.0684847 -0.15204187 1.9108627
-1.0788323 -0.15146554 1.8982308
-1.0672406 -0.1478647 1.8474573
-1.0745783 -0.14694604 1.8305602
-1.0873246 -0.14678109 1.8230944
-1.0748476 -0.1432585 1.7736342
-1.0674599 -0.14049387 1.7338017
-1.1026748 -0.14333543 1.7636918
-1.0751157 -0.13804726 1.6926978
-1.0503917 -0.13324633 1.6280559
-1.0601298 -0.13287932 1.6182376
-1.0736271 -0.13298662 1.6141936
-1.0915592 -0.13363434 1.6166735
-1.1174248 -0.13522726 1.6305377
1.4232661 -0.18617032 2.0448852
1.4094924 -0.18648612 2.0555172
1.3800915 -0.18471768 2.0428641
1.3564342 -0.18368541 2.0382235
1.3416123 -0.18383928 2.0467274
1.3127528 -0.18205018 2.0332918
1.3027748 -0.18286783 2.0490711
1.2773818 -0.18151517 2.0402451
1.2526989 -0.18023092 2.0320158
1.2292255 -0.17909034 2.02525
1.2094712 -0.17846937 2.0242598
1.2008532 -0.17949687 2.0420389
1.1781442 -0.17841749 2.0355821
1.1629481 -0.17846224 2.041929
1.1472414 -0.17842874 2.0472898
1.1286495 -0.17793949 2.047281
1.1129534 -0.17789955 2.0523791
1.0949141 -0.17747864 2.0529504
1.0787671 -0.17735682 2.0569067
1.0571715 -0.17632274 2.0500851
1.0460351 -0.17702839 2.0635488
1.0162039 -0.17454401 2.0394151
1.0020158 -0.17471197 2.0463564
0.99122322 -0.17548622 2.0603964
0.9764787 -0.17557408 2.066258
0.9408443 -0.17184913 2.0267324
0.93375343 -0.17330171 2.0485902
0.91305506 -0.17223501 2.0403728
0.90048802 -0.17269218 2.0502472
0.88469595 -0.1725359 2.0527105
0.86891741 -0.17237689 2.0550525
0.84973729 -0.17152567 2.0489757
0.83180588 -0.17090069 2.045506
0.81763476 -0.1710396 2.0511575
0.80378991 -0.17125314 2.0576396
0.78033912 -0.16938958 2.0388625
0.77318013 -0.17105883 2.0628462
0.75208282 -0.16964933 2.0493536
0.73656744 -0.16946785 2.0506952
0.72665471 -0.17059426 2.067924
0.70559895 -0.1690971 2.0530295
0.68730813 -0.16821304 2.0455108
0.67255479 -0.16817516 2.0482657
0.65719396 -0.1679803 2.0490148
0.64333653 -0.16816962 2.05441
0.62654459 -0.16758281 2.0501709
0.61125737 -0.16738018 2.0505791
0.59378582 -0.16655493 2.0432112
0.58211035 -0.16735487 2.0558565
0.56923872 -0.16784306 2.0645916
0.55242765 -0.16716483 2.0587959
0.53622419 -0.16663882 2.0547984
0.52302325 -0.1670426 2.0622778
0.50382727 -0.16550012 2.0454617
0.48948994 -0.16550992 2.0478826
0.47223863 -0.16450521 2.0375729
0.4577544 -0.16443186 2.0388014
0.44390681 -0.16458981 2.0428519
0.43368921 -0.16614893 2.0643761
0.4157187 -0.16474299 2.048718
0.39950439 -0.1639576 2.040741
0.38396958 -0.16340333 2.0355792
0.36905462 -0.16308048 2.0332453
0.35504007 -0.16314562 2.0357153
0.34411225 -0.16469347 2.0567758
0.32445711 -0.16201757 2.0246153
0.31185186 -0.162779 2.0356517
0.29596227 -0.16181703 2.0249054
0.28268892 -0.16226086 2.0318146
0.26868677 -0.16231102 2.0336952
0.2538121 -0.16181044 2.0285554
0.2371628 -0.16005361 2.0074656
0.22146964 -0.15876351 1.992191
0.20630394 -0.15770543 1.979772
0.19237159 -0.15750678 1.9781559
0.17900468 -0.15777609 1.9824009
0.16534196 -0.15780771 1.9835753
0.15317905 -0.1594058 2.0045381
0.13888517 -0.15888351 1.9985741
0.12505056 -0.15882936 1.9984797
0.11094868 -0.15838024 1.9933137
0.097693905 -0.1591844 2.0039811
0.083346926 -0.15818062 1.9916517
0.070382327 -0.15992194 2.0140927
0.056754 -0.1606403 2.0234945
0.042707354 -0.16025692 2.0188506
0.028853785 -0.16057761 2.0230815
0.014907833 -0.16050313 2.022234
0.00097622909 -0.16066167 2.024282
-0.013014384 -0.16121021 2.0312192
-0.02700771 -0.16120653 2.0310829
-0.041019708 -0.16127875 2.0318477
-0.054534443 -0.1598566 2.0135822
-0.068506815 -0.16008078 2.0161517
-0.082355134 -0.15998833 2.0146408
-0.096563622 -0.1605213 2.0210021
-0.11037657 -0.16034523 2.0183051
-0.12446114 -0.160559 2.0204897
-0.13932458 -0.16163328 2.0335178
-0.15273421 -0.16097872 2.0245662
-0.16570292 -0.16000812 2.0115533
-0.18158135 -0.16178007 2.0332153
-0.19539328 -0.16158865 2.0299439
-0.20957518 -0.16170833 2.0305467
-0.22399104 -0.16198216 2.0330334
-0.23591745 -0.16052973 2.0136328
-0.25112426 -0.16134696 2.0228598
-0.26363751 -0.16043863 2.0102248
-0.27788556 -0.16062421 2.011342
-0.29230332 -0.16088548 2.013346
-0.30959082 -0.16263041 2.033977
-0.31939146 -0.16046178 2.0052299
-0.33449703 -0.16102819 2.0108728
-0.34952569 -0.16151361 2.0154212
-0.36463225 -0.16199623 2.0198586
-0.37543565 -0.16060221 2.0006614
-0.39394107 -0.16248477 2.0225236
-0.41041234 -0.1634272 2.0324962
-0.42055622 -0.16187124 2.011101
-0.4360773 -0.16241863 2.0159824
-0.44995797 -0.16233994 2.0129588
-0.46559903 -0.16288185 2.0176153
-0.48224247 -0.16373214 2.0260334
-0.49784455 -0.16419031 2.0294752
-0.51182002 -0.16410144 2.0260289
-0.52901083 -0.16502039 2.035037
-0.54456037 -0.1653924 2.0371594
-0.55728042 -0.16490798 2.0285835
-0.57259852 -0.16519743 2.0295305
-0.59153754 -0.16649181 2.0428195
-0.6044842 -0.16607814 2.0349057
-0.61706388 -0.16558522 2.0259562
-0.63545185 -0.16663788 2.0359774
-0.64616835 -0.16567679 2.0211329
-0.66811121 -0.16757324 2.0413227
-0.67935508 -0.16676259 2.0281916
-0.69398433 -0.16679943 2.0253861
-0.71712369 -0.16883841 2.0469596
-0.72990936 -0.16840684 2.0382473
-0.74023026 -0.16743472 2.0228958
-0.75800723 -0.16815408 2.0280643
-0.7660048 -0.16671778 2.0069754
-0.78813475 -0.16835362 2.0230713
-0.80540228 -0.1689101 2.0259717
-0.8197723 -0.16884989 2.0213296
-0.83336353 -0.16863421 2.0147402
-0.85114187 -0.16925861 2.0181761
-0.86666322 -0.1694206 2.0159583
-0.88219887 -0.16957998 2.0136218
-0.90340179 -0.1708056 2.0239284
-0.92192197 -0.17149261 2.0276747
-0.93096513 -0.17042294 2.0104222
-0.95334226 -0.17178945 2.0220404
-0.95963418 -0.17026001 1.9992357
-0.98393196 -0.17192313 2.0141232
-0.99877965 -0.17191002 2.0090954
-1.022109 -0.1733357 2.0208893
-1.0247948 -0.17126989 1.9916033
-1.0390795 -0.17117393 1.9853832
-1.0547296 -0.17130242 1.9817041
-1.0472682 -0.16772595 1.9348557
-1.0578501 -0.16709764 1.9223378
-1.0620244 -0.16548787 1.8984294
-1.0634749 -0.16350228 1.8702111
-1.0730205 -0.16279721 1.8567699
-1.0653738 -0.15953597 1.8139867
-1.072425 -0.15853114 1.7971441
-1.0695384 -0.15610132 1.7640504
-1.080279 -0.15569636 1.7540622
-1.0704422 -0.1523723 1.710956
-1.0882266 -0.15301314 1.7127939
-1.043776 -0.14499331 1.6170086
-1.0501841 -0.14414534 1.602219
-1.0624772 -0.14411555 1.5965766
-1.0902727 -0.14616477 1.6140468
-1.1183635 -0.14820597 1.6312068
1.4298129 -0.20326166 2.0533795
1.4103639 -0.20279947 2.0558176
1.3892865 -0.20208974 2.0556011
1.3501496 -0.19870543 2.02775
1.3473566 -0.20065303 2.0545888
1.3211284 -0.1991155 2.045403
1.3004177 -0.19838217 2.0443802
1.2713693 -0.19634317 2.0296247
1.2608052 -0.1971435 2.044317
1.2562762 -0.19891961 2.0692017
1.2133281 -0.19458006 2.0298307
1.1956179 -0.19422777 2.0321386
1.1853881 -0.19509734 2.0472586
1.1642178 -0.1941655 2.0432467
1.1421958 -0.19306451 2.0372965
1.1308461 -0.193762 2.0503716
1.1141778 -0.19355492 2.0537322
1.1049855 -0.19465901 2.0710504
1.0781195 -0.1926367 2.0547483
1.0583506 -0.19184227 2.0514796
1.0409244 -0.19145542 2.0524855
1.0292857 -0.19213738 2.0649593
1.0070711 -0.19083591 2.0558581
0.99491721 -0.19143017 2.0672307
0.95937359 -0.18747237 2.0289121
0.94860637 -0.18830743 2.0426967
0.94057626 -0.18972147 2.0627828
0.92382151 -0.18939322 2.0637281
0.90471292 -0.18856341 2.0590589
0.88807005 -0.1882281 2.059721
0.8710798 -0.1878064 2.0593319
0.85186505 -0.18688188 2.0532775
0.83389843 -0.18620308 2.0498281
0.81162304 -0.18452004 2.0351098
0.80220681 -0.18575232 2.0526996
0.78444934 -0.18506318 2.0488303
0.76782948 -0.18462116 2.0476155
0.75229061 -0.18442683 2.0490782
0.73643684 -0.18414593 2.0494854
0.72554064 -0.18511854 2.063884
0.70772594 -0.18432969 2.0584242
0.68970829 -0.18345329 2.0518727
0.67614102 -0.18374828 2.0584347
0.65798312 -0.18278114 2.0506651
0.63937455 -0.18164213 2.0408411
0.62585294 -0.18192889 2.0470693
0.61086416 -0.18179265 2.0484304
0.59119195 -0.18022209 2.0334077
0.58739865 -0.18353456 2.0738492
0.56966138 -0.18254824 2.0653181
0.5525834 -0.18172689 2.058568
0.53362668 -0.18022673 2.0439656
0.52025068 -0.18058047 2.0504591
0.51273 -0.18304472 2.0810633
