# .PCD v0.7 - Point Cloud Data file format
VERSION 0.7
FIELDS x y z
SIZE 4 4 4
TYPE F F F
COUNT 1 1 1
WIDTH 1493
HEIGHT 1
VIEWPOINT 0 0 0 1 0 0 0
POINTS 1493
DATA ascii
0.24857768 0.77878946 2.0119855
0.23364389 0.77755296 2.0099261
0.21754774 0.77202755 1.9966146
0.20249878 0.76969695 1.9915487
0.18910253 0.77377236 2.0031185
0.17482728 0.77462828 2.0062256
0.16073921 0.77654326 2.0120299
0.14711495 0.7813018 2.0251942
0.13107201 0.77284819 2.0037785
0.11609706 0.76937699 1.9953007
0.10238265 0.774459 2.0091076
0.087140143 0.76775223 1.9920272
0.073060952 0.77067065 2.0000427
0.058138262 0.7639398 1.982753
0.044655219 0.77790296 2.0195236
0.02980667 0.770078 1.9992315
0.015464807 0.77295202 2.0068591
0.0010121787 0.77331561 2.0078497
-0.013720811 0.7890197 2.0489061
-0.027339961 0.75758576 1.9665689
-0.041621607 0.7597006 1.9719365
-0.056532402 0.76930082 1.9968139
-0.071472019 0.77531904 2.012248
-0.086002104 0.7756142 2.0126424
-0.10012551 0.77268571 2.00454
-0.1148257 0.77438569 2.0084682
-0.12869379 0.77072155 1.9983095
-0.14354907 0.77311224 2.0039022
-0.15768936 0.77156693 1.999144
-0.17423581 0.78106713 2.0231476
-0.18621986 0.77022719 1.993996
-0.20225401 0.77649277 2.0094051
-0.2156329 0.77240765 1.9977511
-0.23182835 0.77829129 2.0120058
-0.24440466 0.7720474 1.9945995
-0.25984961 0.77505612 2.0012167
-0.27754521 0.78410554 2.0234604
-0.29039925 0.77925503 2.0094829
-0.30571485 0.78115761 2.0129876
-0.32065886 0.78198063 2.0136118
-0.33730587 0.78670382 2.0242732
-0.35253224 0.78785729 2.0255945
-0.3663049 0.78579974 2.0185275
-0.3810294 0.78586394 2.0168841
-0.39825416 0.79088873 2.0279839
-0.41009691 0.78524822 2.011457
-0.42402858 0.78385925 2.0058486
-0.44226962 0.7902633 2.0202487
-0.45253855 0.78246886 1.998005
-0.46949551 0.7863645 2.0057793
-0.48833376 0.79307896 2.0206935
-0.50471634 0.79552704 2.0245528
-0.52256817 0.80008429 2.0337238
-0.5348767 0.79613715 2.0210366
-0.55264676 0.80031276 2.0290504
-0.56605119 0.79811287 2.020695
-0.58219421 0.79978806 2.022151
-0.59338343 0.79474449 2.0064263
-0.60977823 0.79674911 2.0085671
-0.62540787 0.79768217 2.0078983
-0.63484097 0.79085249 1.9874862
-0.65645111 0.79915786 2.0053222
-0.67214584 0.80005252 2.0043061
-0.69299614 0.80691129 2.0182362
-0.71038461 0.8095327 2.021369
-0.72754234 0.81178725 2.0234792
-0.73770791 0.80630732 2.0060992
-0.75257462 0.80608237 2.0018415
-0.77542955 0.81425434 2.018482
-0.7825883 0.80594683 1.9938809
-0.78943622 0.79763937 1.9692817
-0.81818247 0.81135541 1.9993757
-0.82121658 0.79953873 1.9659787
-0.84644568 0.80936742 1.9861532
-0.86607224 0.81358767 1.9923059
-0.8801735 0.81256133 1.9854153
-0.89000416 0.80769432 1.96902
-0.90315557 0.80595297 1.9602616
-0.92335761 0.81045735 1.9667186
-0.94893038 0.81945419 1.9840064
-0.96704853 0.82182992 1.9849931
-0.96451843 0.80685824 1.9437498
-1.006428 0.8289507 1.9923795
-1.0222275 0.82919347 1.987872
-1.0341249 0.82631111 1.9757497
-1.0353785 0.81513381 1.9436479
-1.0513387 0.81569117 1.9397368
-1.0767603 0.82346839 1.9529972
-1.0987797 0.82846099 1.959438
-1.102916 0.82001871 1.9337976
-1.1203227 0.82153934 1.9318063
-1.1387094 0.82372755 1.9312932
-1.1566688 0.82555252 1.9298151
-1.1707799 0.82461888 1.9217523
-1.1597524 0.8062337 1.872754
-1.1819161 0.8110981 1.8782258
-1.2147931 0.82309812 1.9001564
-1.2093517 0.80915958 1.8616598
-1.2502743 0.82620388 1.8949362
-1.2750829 0.83231348 1.9026769
-1.2579613 0.81123561 1.8478041
-1.2927771 0.82375449 1.8700857
-1.2844318 0.8088004 1.82943
-1.297292 0.80739182 1.8197283
-1.3029413 0.80157954 1.8000036
1.3290662 0.79197681 1.8088862
1.3207214 0.79604286 1.8249291
1.3083986 0.79777813 1.8355597
1.3126932 0.80980545 1.8701097
1.3000216 0.81152773 1.8807038
1.2867359 0.81290358 1.890438
1.2806821 0.81893754 1.9110762
1.3007191 0.8420099 1.9719472
1.2995203 0.85174012 2.0015039
1.2702043 0.84305453 1.9873804
1.265108 0.85042751 2.0113146
1.2286694 0.83664948 1.9847134
1.2063272 0.83223426 1.9802797
1.2163658 0.8503381 2.0298645
1.2024513 0.85195971 2.039866
1.1776574 0.84581172 2.031009
1.1586212 0.84368593 2.0317423
1.125908 0.83140087 2.0076432
1.1166458 0.83632898 2.025296
1.0920345 0.82973754 2.0147469
1.0733539 0.8275249 2.0147712
1.065142 0.83343756 2.0346711
1.0357466 0.822703 2.0135093
1.0366486 0.83607382 2.051729
0.99509054 0.81508279 2.0048623
1.0017568 0.83355319 2.0557063
0.96862686 0.81897122 2.0243678
0.94434559 0.81151563 2.010566
0.93908405 0.82042843 2.0375547
0.91155261 0.80985749 2.0156991
0.88741821 0.80199265 2.0004451
0.86951345 0.79958069 1.9987603
0.8652305 0.80983233 2.0289378
0.85732174 0.8170011 2.0513444
0.83039457 0.80597574 2.0276256
0.81045765 0.80144757 2.0202153
0.79851955 0.80480719 2.0327535
0.7747283 0.79611796 2.014523
0.76306993 0.79979855 2.027729
0.74675471 0.79864872 2.028528
0.72636533 0.79300302 2.0177109
0.71483809 0.79699814 2.0315249
0.69375736 0.79028416 2.0177438
0.66282684 0.77180296 1.9735032
0.65695643 0.78232527 2.0038929
0.64444095 0.7852394 2.0146236
0.6348601 0.79195303 2.0351384
0.62502074 0.79866308 2.0556195
0.59957623 0.78526986 2.0238681
0.58701289 0.78849345 2.0351536
0.56853253 0.78372961 2.0255849
0.55267388 0.7824204 2.0249152
0.53637886 0.78040391 2.0223136
0.51643646 0.77281404 2.0050526
0.50331634 0.77528751 2.0140095
0.48746625 0.77357823 2.0119455
0.47061014 0.77011609 2.005198
0.45614487 0.77046943 2.0083783
0.44465348 0.77603644 2.0251968
0.42966512 0.77567345 2.0263629
0.41468433 0.77529883 2.0274229
0.39413542 0.76410156 1.9998635
0.38145572 0.7678864 2.0117269
0.36546004 0.76503175 2.0059934
0.34956709 0.76216388 2.0001392
0.3365413 0.76556951 2.0108051
0.32250041 0.76687008 2.0158381
0.30742368 0.76571411 2.014293
0.29238647 0.76454622 2.0126405
0.27738944 0.76336652 2.0108812
0.26375821 0.76602274 2.0192354
0.24592564 0.75607377 1.9940261
0.23532565 0.76850605 2.0282331
0.21691272 0.75538021 1.9944044
0.203501 0.75904292 2.0051606
0.18907522 0.75919425 2.0065045
0.1739967 0.75653261 2.0002844
0.15827814 0.75035572 1.9846195
0.14601946 0.76098323 2.0136805
0.12923622 0.7477749 1.9791143
0.11564865 0.7520746 1.9911705
0.10203753 0.75741589 2.005944
0.087532431 0.75678802 2.0047214
0.073151797 0.75720066 2.0062075
0.058727384 0.75725162 2.0066586
0.043787647 0.74852663 1.9836037
0.029995879 0.7604757 2.0156927
0.015190927 0.74506605 1.9746429
0.001005018 0.75348723 1.9971746
-0.013197171 0.744717 1.9737201
-0.027219461 0.7401433 1.9614075
-0.041360464 0.7408179 1.9630454
-0.056576513 0.75550503 2.002033
-0.071066722 0.75650734 2.0044045
-0.085395828 0.75574583 2.0019972
-0.099324189 0.75216931 1.9920093
-0.11332652 0.74998426 1.98567
-0.12778042 0.75094247 1.9876493
-0.14372718 0.75959742 2.0100822
-0.15795808 0.75843 2.0062475
-0.17238088 0.75830257 2.0051165
-0.18765892 0.76166588 2.0132136
-0.20120315 0.7580145 2.0025587
-0.2151034 0.75610358 1.9964739
-0.23158351 0.76293176 2.013566
-0.24741629 0.76694661 2.0230906
-0.26076829 0.76325274 2.012054
-0.27637294 0.76619393 2.018573
-0.28757074 0.75723594 1.9934434
-0.30246702 0.75840753 1.9951299
-0.32076114 0.76760352 2.017998
-0.33497262 0.76665342 2.013901
-0.35216799 0.77232665 2.0272536
-0.35896108 0.75564688 1.9814397
-0.38132364 0.77176499 2.0222249
-0.39784566 0.77530414 2.0296798
-0.41059878 0.77150822 2.017714
-0.42781326 0.77606779 2.0276918
-0.44102103 0.77329713 2.0182941
-0.4537077 0.76982158 2.0069859
-0.47155064 0.77503848 2.018435
-0.48237938 0.76876009 1.9996477
-0.49881008 0.77151644 2.0044792
-0.52065653 0.78225178 2.0300829
-0.53314704 0.77872419 2.0182931
-0.54867363 0.77970195 2.0182023
-0.55695617 0.77060539 1.991789
-0.58083987 0.78300744 2.0212855
-0.58856428 0.77355009 1.9938377
-0.60997522 0.7821036 2.0130992
-0.61869597 0.77436602 1.990028
-0.64070404 0.78323197 2.009876
-0.65637481 0.78412366 2.0089881
-0.65787011 0.76841807 1.9652354
-0.68959808 0.78794056 2.0121918
-0.7007457 0.78361684 1.9976429
-0.71487242 0.78273541 1.9918822
-0.72799206 0.78080994 1.9833795
-0.74594373 0.78404015 1.9879915
-0.76567203 0.78897452 1.9968411
-0.79135323 0.79973459 2.020395
-0.79905057 0.79225731 1.9974295
-0.81669307 0.79473495 1.9997011
-0.83728552 0.79994071 2.0087719
-0.83613718 0.78456074 1.9657261
-0.8671093 0.79933071 1.998737
-0.88311684 0.80003405 1.9961401
-0.89875162 0.8003816 1.9925631
-0.91282392 0.79934925 1.985448
-0.92327756 0.79523396 1.970566
-0.94563955 0.8013429 1.9811256
-0.95227289 0.79414082 1.9584485
-0.96733898 0.79408652 1.953501
-0.98533154 0.79639924 1.9543295
-1.0161935 0.80888563 1.9801488
-1.0197808 0.79961294 1.9521879
-1.0370642 0.80119431 1.950905
-1.0646176 0.81054884 1.9685477
-1.0649793 0.79922938 1.9355216
-1.0859369 0.80346775 1.9404399
-1.1010072 0.80329299 1.9345088
-1.1287066 0.81221062 1.9505092
-1.0973672 0.77897787 1.8645794
-1.1436509 0.80099827 1.9119982
-1.1532283 0.79706872 1.8967681
-1.1631386 0.7934683 1.8823053
-1.1833597 0.79690391 1.8845944
-1.2026681 0.7996456 1.8851067
-1.2200079 0.80102605 1.8822758
-1.2250012 0.7943663 1.8603619
-1.2469361 0.79872102 1.864399
-1.2531899 0.79304719 1.8447697
-1.2725345 0.79569423 1.8446071
-1.2456657 0.76972258 1.7776613
-1.3005337 0.79427445 1.8283476
-1.3210449 0.79752022 1.8292754
1.3284764 0.77654105 1.8120176
1.3283951 0.7854116 1.8396105
1.3029132 0.7792955 1.831759
1.3088928 0.79207486 1.8686769
1.3101331 0.80225593 1.8995311
1.2940966 0.80197543 1.9054201
1.2816988 0.80397046 1.9166963
1.2867677 0.81710625 1.9547895
1.2877746 0.82795858 1.9874884
1.2747381 0.82994211 1.9987537
1.2611068 0.83158427 2.0091376
1.2251885 0.81838208 1.9832128
1.2194567 0.82526147 2.0062008
1.193225 0.81826597 1.9951183
1.198149 0.83273548 2.0367486
1.1809174 0.83199173 2.040906
1.1567307 0.82625926 2.0326037
1.1382252 0.82448065 2.0339658
1.103489 0.8107267 2.0053711
1.092425 0.8142181 2.019608
1.0882564 0.82302701 2.0471358
1.0594445 0.81318343 2.0278306
1.0391034 0.80964208 2.0241902
1.0319525 0.81642711 2.0465012
1.0033307 0.80617243 2.0256739
0.979164 0.79922891 2.0130405
0.97178185 0.80598253 2.0350869
0.95261091 0.80301976 2.0323553
0.93979365 0.80540347 2.0431719
0.92841387 0.80912048 2.0573502
0.89490741 0.7933501 2.0214558
0.87687665 0.79098672 2.0197995
0.85562187 0.78557909 2.0101869
0.84608078 0.79092503 2.0282209
0.82464838 0.78514707 2.0174303
0.81384808 0.78946501 2.0326912
0.79911965 0.79006487 2.0382519
0.78268147 0.78896505 2.0393116
0.76495796 0.78649962 2.0367174
0.73990041 0.77623963 2.0136454
0.72912318 0.78084588 2.0293272
0.69865179 0.76410878 1.9889852
0.69700807 0.77885777 2.0311494
0.67401397 0.76987451 2.0109019
0.66122675 0.77240652 2.0208571
0.64606154 0.77221388 2.0235622
0.62922829 0.76997083 2.0207663
0.61274225 0.76805395 2.018739
0.60055691 0.77156651 2.0310216
0.58332133 0.76860476 2.0260575
0.56896055 0.76937467 2.0309207
0.55284482 0.76774895 2.0293334
0.53654426 0.76576936 2.0267148
0.52310026 0.76787019 2.0349028
0.49646822 0.75016689 1.9900855
0.48498279 0.7549718 2.0053253
0.47011441 0.75464588 2.0067728
0.45979011 0.76182806 2.028286
0.44518963 0.7621671 2.03139
0.4243885 0.75154871 2.0049658
0.41425213 0.75973284 2.0290074
0.39551443 0.75216413 2.0105882
0.38261229 0.75553828 2.02156
0.36907446 0.75787616 2.02968
0.35063392 0.74992257 2.0099437
0.33633614 0.75052398 2.0132234
0.3225987 0.75248682 2.0201173
0.30541101 0.74620599 2.0046313
0.28819394 0.73922396 1.9871503
0.27798238 0.7504214 2.0188541
0.26323617 0.74993914 2.0188453
0.24816333 0.74841535 2.0159373
0.23110838 0.74035227 1.995195
0.21818495 0.7453326 2.0098002
0.20290507 0.74239898 2.0028353
0.18921985 0.74529749 2.0116551
0.17364612 0.74062169 1.9998027
0.15928668 0.74074787 2.0009422
0.14478566 0.74017537 2.0001101
0.1301837 0.73890388 1.9973038
0.11541366 0.73624492 1.9906465
0.10055634 0.73219824 1.9801344
0.087193795 0.73949564 2.0004733
0.073174007 0.74299783 2.0104039
0.058473125 0.73960626 2.0014699
0.043862283 0.73551506 1.9905568
0.029700575 0.73864084 1.9992574
0.015331358 0.7376253 1.9965948
0.00096319878 0.70837402 1.9168446
-0.013014534 0.72041661 1.9496646
-0.02720163 0.72556436 1.9636099
-0.04133343 0.72622675 1.965253
-0.05559523 0.72825491 1.9705533
-0.071813323 0.7498883 2.0292399
-0.085223466 0.73984879 2.0014937
-0.10032669 0.74528396 2.0158663
-0.11410231 0.74072969 2.002943
-0.12841536 0.74029356 2.0011761
-0.14324014 0.74259835 2.0068047
-0.15574247 0.7335428 1.9814343
-0.17075978 0.73685777 1.9896764
-0.18288073 0.72812837 1.9650817
-0.19679968 0.72729701 1.9619124
-0.21068336 0.72645533 1.9586495
-0.23090988 0.74621725 2.0112784
-0.24579774 0.74741095 2.0133772
-0.2596516 0.74550283 2.0069869
-0.27494249 0.74770415 2.0116739
-0.29177582 0.75366879 2.0264781
-0.30492917 0.75001216 2.0151408
-0.3205668 0.7525208 2.0204258
-0.33828172 0.75947416 2.0376441
-0.34128258 0.73419249 1.9676917
-0.35541728 0.73393029 1.9653041
-0.37885267 0.75215328 2.012691
-0.39510256 0.75528699 2.0192676
-0.40905306 0.75395817 2.0137458
-0.42640689 0.75877732 2.0246878
-0.44195113 0.76016194 2.0263057
-0.45713115 0.76085073 2.0259752
-0.47762838 0.77006924 2.0484271
-0.48318043 0.75536376 2.0067041
-0.48906332 0.74202716 1.9686588
-0.50878102 0.7498439 1.9871184
-0.53497684 0.76650733 2.0290489
-0.54321951 0.7572419 2.0017219
-0.55762655 0.75683141 1.9979411
-0.57381159 0.75879329 2.0003912
-0.59270155 0.76414424 2.0117421
-0.60746014 0.76403737 2.0085192
-0.61833066 0.75916195 1.992608
-0.63297242 0.75903612 1.9892033
-0.65368199 0.76602662 2.0044889
-0.6796782 0.77876329 2.0347664
-0.68557978 0.76842254 2.0042031
-0.7000367 0.76790738 1.9994336
-0.71540928 0.76839709 1.9972237
-0.73593354 0.77428693 2.0090513
-0.75830644 0.78184694 2.025104
-0.76624715 0.77452207 2.0022297
-0.78888351 0.78204739 2.0179603
-0.78890145 0.76728976 1.9757117
-0.81871951 0.78152573 2.0086248
-0.83432245 0.78192103 2.005538
-0.85394794 0.78600472 2.0118804
-0.85698068 0.77494061 1.9791116
-0.87282056 0.77563959 1.9765961
-0.89443517 0.78135967 1.9868602
-0.91078085 0.78236276 1.984919
-0.90018243 0.76056778 1.9247309
-0.93387187 0.77629137 1.9602052
-0.95217717 0.77893031 1.962191
-0.97222298 0.78288811 1.9674056
-0.99113327 0.78582388 1.9699088
-1.0118419 0.79007477 1.9756093
-1.018826 0.78364211 1.9543213
-1.0492764 0.79518265 1.9780958
-1.0538568 0.78706741 1.9524919
-1.072565 0.78958452 1.9534292
-1.0936302 0.79374152 1.9583305
-1.1129718 0.79654932 1.9597485
-1.130517 0.79801208 1.9577214
-1.143818 0.79647988 1.94821
-1.1440585 0.78601533 1.9166847
-1.1740839 0.79602063 1.9354002
-1.1665101 0.78060502 1.8917794
-1.186779 0.78397769 1.8940752
-1.1920158 0.77746069 1.8722308
-1.2179096 0.78441113 1.8830047
-1.2419586 0.79001641 1.8903483
-1.2411461 0.77986336 1.8596386
-1.2573509 0.78051883 1.8549168
-1.2815442 0.7860586 1.8617736
-1.2956696 0.78536528 1.8536311
-1.3081099 0.78367865 1.8430704
-1.3177143 0.78035134 1.8285875
1.3284184 0.76142341 1.8158039
1.2914302 0.74872404 1.7917955
1.2946688 0.75932252 1.8239306
1.2850929 0.76256609 1.8382962
1.2951356 0.77766687 1.8815665
1.2855943 0.78123033 1.8967755
1.3004661 0.79989678 1.9490583
1.3006881 0.80990189 1.9802264
1.2565622 0.79219753 1.9429766
1.2676319 0.80928373 1.9916459
1.2560787 0.81217957 2.0052009
1.2364955 0.80989099 2.0057809
1.2233146 0.81179082 2.0167284
1.2095594 0.81335509 2.0267801
1.1881056 0.80971467 2.0236664
1.1789894 0.81449831 2.0416913
1.1422809 0.80008799 2.0110881
1.1193724 0.79507411 2.0040622
1.1129142 0.80176842 2.0267041
1.0901198 0.79671717 2.0193594
1.0807041 0.80143887 2.0368893
1.0611053 0.79863721 2.0350838
1.0394506 0.79417998 2.0288968
1.036099 0.80378491 2.0588577
0.99741936 0.78585505 2.0176263
1.0016214 0.80167824 2.0636179
0.96806043 0.78729981 2.0312138
0.94735122 0.78307343 2.0250032
0.92521918 0.7775107 2.0151703
0.91214478 0.77950019 2.0249581
0.89518964 0.77818453 2.0260177
0.87976182 0.77817386 2.030412
0.86872131 0.78211272 2.04513
0.83985627 0.76985556 2.0170527
0.828444 0.77343917 2.0306678
0.80748981 0.76808161 2.0205402
0.78946006 0.76535338 2.0172603
0.76984608 0.76095229 2.0094223
0.77045608 0.77676505 2.0553484
0.74496222 0.76636833 2.0313516
0.72649723 0.76292038 2.0257671
0.71342242 0.76510662 2.0351717
0.69934273 0.76628667 2.0418167
0.67777908 0.75913674 2.0259938
0.66956395 0.76695234 2.050339
0.64454758 0.75543916 2.0225298
0.62885863 0.75457066 2.0233076
0.60912263 0.74868554 2.0104272
0.59994024 0.75580204 2.0326555
0.58245945 0.75256091 2.0267563
0.56459206 0.74863696 2.0189004
0.55055243 0.74971366 2.0245476
0.5314427 0.74375463 2.010958
0.51604569 0.74279982 2.0109036
0.50090474 0.74216825 2.0116513
0.48490322 0.74018496 2.0086248
0.47408375 0.74623477 2.0275035
0.45806715 0.74423015 2.024271
0.44132295 0.74087071 2.0172358
0.42315754 0.73481232 2.0026956
0.4082112 0.73411119 2.0027776
0.3936469 0.73407084 2.0046015
0.38064092 0.73704475 2.0146558
0.37068549 0.74639827 2.0422399
0.35282004 0.73994011 2.0261698
0.33489594 0.73279363 2.0080976
0.30665365 0.70139909 1.9229134
0.30001843 0.71879131 1.9724513
0.27890307 0.70149612 1.9259926
0.26648262 0.70540351 1.9381171
0.25342196 0.70795476 1.9464302
0.24983102 0.73880911 2.0331626
0.2327843 0.73123544 2.0133109
0.21764404 0.72904259 2.0083025
0.20390354 0.73156023 2.0163002
0.18936202 0.73136926 2.0167086
0.17224382 0.72037029 1.9870044
0.15933248 0.7265678 2.0050261
0.14388463 0.72128087 1.9910446
0.12464102 0.69370222 1.9149541
0.11269402 0.70493126 1.9467711
0.099307977 0.70906192 1.9587755
0.088558853 0.73648304 2.0355783
0.072991714 0.72675002 2.0088556
0.058217674 0.72207099 1.9961339
0.044018593 0.72379792 2.0011885
0.029099695 0.70963937 1.9619128
0.015042216 0.70965582 1.9620638
0.00099015434 0.71405298 1.9743547
-0.012644755 0.68635118 1.8971341
-0.025595007 0.66944838 1.8499438
-0.040521611 0.69813323 1.929711
-0.052140091 0.6697281 1.8503531
-0.066821225 0.68420589 1.8903999
-0.084851332 0.72230929 1.9961642
-0.099846028 0.72730547 2.0096369
-0.11408217 0.7262128 2.0060852
-0.12928835 0.73084825 2.0184069
-0.14407828 0.73243415 2.0221677
-0.1571749 0.72590923 2.0033007
-0.16881487 0.7143147 1.9702852
-0.18059865 0.70507497 1.9437715
-0.19164218 0.69447935 1.9134473
-0.20655286 0.69837826 1.9233222
-0.22735938 0.72047096 1.9835992
-0.24552989 0.73209387 2.0147078
-0.26104307 0.73493886 2.0213823
-0.27401146 0.73069715 2.0083492
-0.29053155 0.73587716 2.021338
-0.3030633 0.7309429 2.0062616
-0.31612733 0.72768384 1.9957646
-0.32646021 0.71869648 1.969391
-0.3439289 0.72551322 1.9865969
-0.34505501 0.69869143 1.9109569
-0.36825812 0.71691751 1.959468
-0.39055738 0.7320956 1.9994305
-0.40805668 0.73751169 2.0124025
-0.42518479 0.74190563 2.0224652
-0.44227955 0.74594957 2.0314703
-0.45356584 0.74025232 2.0136771
-0.47013646 0.74326622 2.0196962
-0.47523198 0.72850627 1.9770129
-0.49707997 0.73954016 2.004812
-0.48946774 0.70736712 1.9145796
-0.51989251 0.73042518 1.9749967
-0.5404408 0.73873419 1.9950422
-0.55979657 0.74501806 2.00945
-0.57449305 0.7449373 2.0064623
-0.59710038 0.75486177 2.0305171
-0.60601461 0.7474131 2.0074
-0.62072575 0.74729866 2.0040865
-0.62692046 0.73717558 1.9736919
-0.64836705 0.74503917 1.9917635
-0.67069918 0.75354761 2.0114264
-0.6869927 0.75504887 2.0121212
-0.70117044 0.75421017 2.0064526
-0.72224396 0.76066929 2.0202436
-0.7393713 0.76279306 2.0223148
-0.75295937 0.76125348 2.0145187
-0.75376946 0.74710941 1.9731106
-0.77685779 0.75516623 1.9907445
-0.78288937 0.74665141 1.9642797
-0.80872393 0.75698841 1.9877113
-0.82163352 0.75507122 1.9785936
-0.85494405 0.77163559 2.0181236
-0.8702637 0.77166545 2.0139089
-0.86552161 0.7542125 1.9637363
-0.89548129 0.76707786 1.9930686
-0.8973906 0.7558865 1.959324
-0.92783535 0.76870394 1.9882115
-0.94302785 0.76867509 1.9834592
-0.95615768 0.76699251 1.9743372
-0.96007311 0.75808686 1.9464635
-0.98765796 0.76785731 1.9668367
-1.0031933 0.76810551 1.9624841
-1.009617 0.76147425 1.9403789
-1.0386339 0.7718274 1.9617927
-1.0573207 0.7743153 1.9628915
-1.0720164 0.77385092 1.9563535
-1.0926236 0.77760667 1.9604658
-1.0989796 0.77125669 1.9388382
-1.1266779 0.77985334 1.9549872
-1.1308999 0.77218765 1.9299618
-1.1199025 0.75447327 1.8797299
-1.1628007 0.77305645 1.9205873
-1.1747968 0.77087933 1.9092522
-1.1881877 0.76966149 1.9002604
-1.2146313 0.77682239 1.911999
-1.2397757 0.78298366 1.9210747
-1.2573724 0.78428465 1.9179928
-1.2713361 0.78331554 1.9092345
-1.2847105 0.78201121 1.8995939
-1.2772135 0.76818466 1.8593382
-1.2966864 0.77071387 1.8590175
-1.3080511 0.76842105 1.846893
-1.3160051 0.76420045 1.8300787
1.3472728 0.75693268 1.8456398
1.328269 0.75482666 1.8471838
1.3251387 0.76179701 1.8710933
1.3130872 0.76374233 1.8825623
1.3132304 0.77291113 1.9120032
1.3103708 0.78051221 1.9376007
1.2904695 0.77802414 1.9379193
1.2732188 0.77709234 1.9420377
1.2846256 0.79384649 1.9907569
1.2746561 0.79764736 2.0068293
1.2590214 0.79795551 2.013998
1.2384094 0.79507595 2.0129573
1.2281344 0.7988444 2.0288014
1.2104599 0.79783618 2.032361
1.1661135 0.77898341 1.9898862
1.1624496 0.78716314 2.0168364
1.1291846 0.77524704 1.9917957
1.1353356 0.7904377 2.0368783
1.1164497 0.78838217 2.0371959
1.0931542 0.78310806 2.0289986
1.0709194 0.77845007 2.0222573
1.0627511 0.7840305 2.0422397
1.0337811 0.77420145 2.0216694
1.0212218 0.77654928 2.033006
0.99856251 0.7711702 2.0238581
0.98634875 0.77381545 2.0358298
0.9631058 0.76775378 2.0246172
0.93490499 0.75747681 2.0020199
0.92784941 0.76427484 2.024797
0.9143483 0.76590419 2.0337458
0.89052582 0.7587949 2.0192015
0.87853241 0.76169246 2.0313833
0.86531293 0.76361132 2.0408819
0.85597408 0.7690866 2.0599177
0.82691604 0.75671917 2.0306878
0.80424339 0.74983925 2.0161104
0.80096966 0.76112884 2.0507026
0.7710731 0.74706674 2.0163829
0.76442808 0.75542057 2.0429182
0.74227148 0.74847347 2.0276911
0.7292375 0.75062776 2.037205
0.71114653 0.74755752 2.0323496
0.69225413 0.74349332 2.0246596
0.67678219 0.74300379 2.0266793
0.65288222 0.7330296 2.0025072
0.63619351 0.73087668 1.999736
0.6359877 0.74800754 2.0501204
0.61852765 0.74518508 2.0453889
0.5953362 0.73514444 2.0205672
0.57925957 0.73360038 2.0191543
0.56197459 0.73040473 2.013067
0.55095184 0.73539513 2.0296454
0.54115885 0.74234933 2.0516531
0.5231697 0.73813629 2.0425
0.50194746 0.72898042 2.0194459
0.48371834 0.72374922 2.0072241
0.46995321 0.72507918 2.0132523
0.44290739 0.70534468 1.9602157
0.43564418 0.71684986 1.9945811
0.42095149 0.71650088 1.99567
0.4111256 0.72470599 2.0207181
0.39808136 0.72763461 2.0309
0.37848768 0.71835715 2.0066664
0.36460716 0.71961564 2.0119972
0.35083172 0.72119462 2.0181665
0.33391047 0.71616352 2.0056179
0.32057339 0.71871191 2.0143821
0.2947543 0.69219005 1.9409252
0.28125194 0.69339043 1.9456985
0.26706067 0.69292939 1.945706
0.25203928 0.69014418 1.939062
0.24317154 0.70486993 1.9819608
0.22962634 0.7070263 1.9892019
0.21770376 0.71479648 2.012306
0.20367765 0.71627378 2.0175025
0.18862768 0.71410096 2.0122693
0.17455091 0.71555752 2.0172715
0.15922801 0.71170765 2.0071278
0.14419314 0.70850825 1.9987561
0.12637201 0.6894033 1.9450788
0.11304746 0.69313371 1.9562579
0.097299196 0.6809569 1.9221156
0.083382525 0.67969823 1.9189634
0.072502673 0.70758051 1.9986926
0.05747053 0.69868374 1.9736749
0.041790053 0.67354167 1.902329
0.025170963 0.60167152 1.6978465
0.012997046 0.60102284 1.6960902
0.00092573481 0.65437168 1.8480436
-0.01279735 0.68087339 1.9234841
-0.026453981 0.67820847 1.9158024
-0.040453531 0.68315363 1.9297242
-0.054362684 0.68444401 1.9331731
-0.069610223 0.69864362 1.9733012
-0.083683491 0.69825608 1.9718341
-0.099456035 0.71011311 2.0051403
-0.11485655 0.71665853 2.0232527
-0.12866682 0.71292657 2.012059
-0.14278947 0.71150273 2.0073647
-0.1571448 0.71139288 2.0063386
-0.17109415 0.70961773 2.0005131
-0.1847963 0.70717096 1.9927157
-0.19001389 0.67493796 1.9003123
-0.20880118 0.69199479 1.9477631
-0.21730581 0.67497122 1.8984634
-0.23914939 0.69894344 1.9653276
-0.25764185 0.71099371 1.9982804
-0.2737073 0.71542722 2.0095627
-0.2887491 0.71687436 2.0123117
-0.30496228 0.72095245 2.0224211
-0.3191396 0.72006506 2.0184186
-0.33312348 0.71883774 2.0133891
-0.34019187 0.70341384 1.968259
-0.3576045 0.7097581 1.9844666
-0.37232864 0.71048284 1.9847528
-0.39084283 0.71811748 2.0043995
-0.40612334 0.71947658 2.0063007
-0.42356977 0.72444636 2.0182581
-0.43941647 0.72643918 2.0217667
-0.45451334 0.72710377 2.0214696
-0.4713276 0.73038805 2.0284259
-0.48410928 0.72741354 2.0177937
-0.49158376 0.7168749 1.9859892
-0.50234139 0.71159041 1.968833
-0.52193826 0.71877283 1.9863607
-0.51047373 0.68394917 1.8869288
-0.55743796 0.72718239 2.0044992
-0.56949532 0.72382808 1.9924415
-0.58405465 0.72374219 1.9893886
-0.60943133 0.73673743 2.022445
-0.62422377 0.73662281 2.0191114
-0.63786793 0.73518997 2.0120668
-0.64970589 0.73178804 1.9995364
-0.66466171 0.73197114 1.9968144
-0.68355185 0.73638463 2.0056252
-0.69889361 0.73686886 2.0035529
-0.71361262 0.73668998 1.999585
-0.72766995 0.73584944 1.9937347
-0.74726486 0.74053013 2.0028634
-0.75598705 0.73446381 1.9826308
-0.78423822 0.74723881 2.0135417
-0.79248399 0.74082959 1.9922513
-0.80471188 0.73831165 1.9814751
-0.81862903 0.73740697 1.9750025
-0.84933877 0.7513907 2.0085654
-0.86977655 0.7559554 2.0165737
-0.88166922 0.75306398 2.0044503
-0.90921235 0.76341134 2.0277116
-0.91133404 0.75242472 1.9938005
-0.92453754 0.75079793 1.9848791
-0.94088989 0.75173962 1.9827245
-0.95357788 0.7497701 1.9727589
-0.96783692 0.74907827 1.9661181
-0.98753512 0.75255263 1.9704001
-1.0103424 0.75825489 1.9804208
-1.0411566 0.76970619 2.0053785
-1.0407147 0.75805336 1.9695997
-1.0594349 0.76049381 1.9707074
-1.0746129 0.76035815 1.9649907
-1.0952606 0.76404208 1.9691169
-1.1090686 0.76291847 1.9606575
-1.1176465 0.75827712 1.9430492
-1.1336423 0.75872612 1.9385393
-1.142409 0.75438935 1.9216549
-1.1700059 0.7624377 1.9364645
-1.1840628 0.76156813 1.9283099
-1.2010598 0.76258743 1.9248966
-1.2054452 0.75567502 1.9012705
-1.2350928 0.76457393 1.9176537
-1.2433443 0.76017147 1.9002937
-1.2702125 0.76711971 1.9114397
-1.2751297 0.7608034 1.8891858
-1.3000716 0.76644289 1.896791
-1.3235706 0.77110887 1.901803
-1.3210486 0.76068294 1.8692664
-1.3186747 0.75058126 1.837638
1.3226569 0.72808456 1.8153378
1.305547 0.72691995 1.8190182
1.3048365 0.73496544 1.8459299
1.2913703 0.73593086 1.8549179
1.310469 0.7556982 1.9117978
1.2960014 0.75635189 1.920036
1.2898585 0.76193905 1.9408745
1.2783042 0.76442814 1.9537492
1.2743112 0.77155751 1.9785788
1.2568657 0.77061909 1.98253
1.2514393 0.77712035 2.0057342
1.232887 0.7755335 2.0078611
1.2221897 0.77891093 2.0228717
1.1925124 0.77012122 2.0059183
1.1817445 0.77347076 2.0207012
1.148692 0.76212674 1.9966611
1.1388366 0.76607192 2.0128472
1.1384503 0.77658743 2.0464544
1.1109109 0.76861668 2.0309162
1.1019868 0.77348089 2.0494432
1.0800673 0.76923263 2.043565
1.0565528 0.76370484 2.0341101
1.0358074 0.76004148 2.0295122
1.0016559 0.74627757 1.997537
1.0163599 0.76905161 2.0640936
1.0030643 0.77102518 2.0744879
0.96864456 0.75656343 2.0401692
0.95349246 0.7569235 2.045948
0.92458737 0.74619609 2.021385
0.91075224 0.74747366 2.0294504
0.89381528 0.74620575 2.0304708
0.85338557 0.7249366 1.9764396
0.85858136 0.74235827 2.0286124
0.84791696 0.74645025 2.0441267
0.81934357 0.73463613 2.0156312
0.80759978 0.73775095 2.0282805
0.79298401 0.73831129 2.0337942
0.78236359 0.74268633 2.0498419
0.76068622 0.73653024 2.0365164
0.73827338 0.7293967 2.0203204
0.7208851 0.72703373 2.0173132
0.70420134 0.72529602 2.0159559
0.69152844 0.72770357 2.026134
0.6689297 0.71954101 2.0065541
0.65014213 0.71520066 1.9975809
0.64717937 0.72847128 2.0381379
0.63254285 0.7289204 2.0425344
0.61189896 0.72230005 2.0268691
0.59708589 0.72240394 2.0301125
0.58018893 0.71992737 2.0259638
0.56464589 0.7190448 2.0262461
0.55208158 0.72201014 2.0373864
0.53244668 0.71563679 2.0218878
0.51865178 0.71697301 2.0282438
0.50434279 0.71765602 2.0326705
0.48999897 0.71832931 2.0369997
0.46964911 0.70996541 2.0154085
0.45252681 0.70609915 2.0065703
0.43635622 0.70351022 2.001297
0.42009145 0.70058596 1.9949738
0.40898919 0.7063697 2.0135748
0.39439774 0.70633197 2.0153985
0.38432178 0.71468818 2.041306
0.36620691 0.70816565 2.0243289
0.35188705 0.70874465 2.0277195
0.33492076 0.70381278 2.0151422
0.32227793 0.70793086 2.0286012
0.30509925 0.70200342 2.0129809
0.28386849 0.68569726 1.9672564
0.26687115 0.67844337 1.9475902
0.25294617 0.67862934 1.949369
0.23684137 0.67264622 1.9332091
0.22861023 0.68967175 1.9836546
0.2165508 0.69664127 2.0049219
0.20373105 0.70198166 2.021414
0.18780223 0.69660693 2.0067468
0.17443511 0.70063102 2.0192916
0.15934356 0.69782984 2.0119488
0.14328638 0.68982369 1.9894034
0.12767862 0.68245429 1.9686257
0.11431871 0.68676233 1.9817263
0.099879935 0.6848911 1.9767921
0.085964307 0.68658173 1.9821512
0.071570322 0.68436486 1.9760745
0.055467084 0.66069901 1.907503
0.037356585 0.5899179 1.7017072
0.023857685 0.55875421 1.6111375
0.012339684 0.55909204 1.6122068
0.00080398173 0.55682278 1.6056317
-0.010912148 0.56883913 1.6405901
-0.024210004 0.60813498 1.754902
-0.038971234 0.64482075 1.8615425
-0.053901922 0.66492736 1.9198456
-0.069859028 0.68697059 1.983704
-0.085055321 0.69535947 2.0077465
-0.098089248 0.68620002 1.9806654
-0.11409017 0.6974895 2.0129976
-0.12852105 0.69772685 2.0131121
-0.14282663 0.69730455 2.0112405
-0.15499033 0.68745935 1.9819238
-0.16986068 0.69026363 1.9892977
-0.18588217 0.6969502 2.0078678
-0.1997523 0.69518965 2.0018404
-0.21484537 0.69763595 2.0079503
-0.22950293 0.69844961 2.0092516
-0.2418129 0.69244474 1.9907264
-0.25626981 0.69291472 1.9908997
-0.27339888 0.70017838 2.0106611
-0.28975642 0.70483655 2.0227911
-0.30154738 0.69847184 2.0029793
-0.31234071 0.69048238 1.9784318
-0.33167964 0.70125729 2.0079923
-0.34937859 0.70780921 2.0252578
-0.35836038 0.69688368 1.9920748
-0.37518945 0.70147264 2.0035276
-0.39058477 0.70313966 2.0064838
-0.40176231 0.69736612 1.9879843
-0.42233187 0.70773065 2.0157614
-0.43973091 0.71226716 2.0266972
-0.45463255 0.71259576 2.0254817
-0.46762943 0.71001172 2.0158582
-0.4848927 0.7138657 2.0245752
-0.49779618 0.71126312 2.0147645
-0.50733906 0.70414531 1.992025
-0.52755702 0.71182746 2.0114028
-0.53558266 0.70308816 1.9839532
-0.55305576 0.70688492 1.9920968
-0.57377005 0.71452272 2.0110309
-0.58975869 0.71604067 2.0124979
-0.60552901 0.71722573 2.0129361
-0.61884153 0.71551251 2.0051045
-0.63888788 0.72148341 2.0188777
-0.65103716 0.71846759 2.0072231
-0.66513252 0.71768582 2.0017984
-0.68524814 0.72329265 2.0142312
-0.69660324 0.71961069 2.0005131
-0.71538109 0.7235902 2.0081792
-0.73011816 0.72340339 2.0040979
-0.75009352 0.72831035 2.0141351
-0.76255006 0.72586745 2.0036006
-0.77353317 0.72214299 1.9894551
-0.78644186 0.7203232 1.9805487
-0.81412691 0.73185384 2.0085044
-0.83253211 0.73477441 2.012491
-0.83638525 0.7249769 1.9813366
-0.84915471 0.72311646 1.9720304
-0.88115793 0.73741651 2.006988
-0.87905401 0.72317219 1.9635831
-0.89985293 0.72793043 1.9721569
-0.9247973 0.7358309 1.9891528
-0.92501247 0.72411764 1.9526622
-0.95015979 0.7319839 1.9693309
-0.9643687 0.73130918 1.9627155
-0.99119407 0.74007529 1.9815034
-1.0042161 0.73842555 1.9720591
-1.0479801 0.75909269 2.0224695
-1.0198926 0.72787273 1.9335765
-1.0352085 0.72808516 1.9289856
-1.0667943 0.73957074 1.9543375
-1.0717654 0.73254186 1.9302676
-1.0889821 0.73396158 1.9285997
-1.0925987 0.72630173 1.9028516
-1.1368459 0.74549299 1.9478539
-1.1605917 0.75090736 1.9563071
-1.1411005 0.72857308 1.8919522
-1.1814734 0.7445448 1.9278502
-1.1679714 0.72659129 1.8751429
-1.018838 0.62578577 1.6077503
-0.89198846 0.54101843 1.383414
-0.96253496 0.57659334 1.470571
-1.0798557 0.63897723 1.6259334
-1.2063318 0.70520884 1.7900177
-1.2519078 0.72313237 1.8296317
-1.298656 0.74130273 1.8694869
-1.3035003 0.73540908 1.8479732
-1.2794483 0.71353561 1.7861446
1.3414881 0.72321856 1.8450809
1.3125869 0.7157647 1.8325518
1.3178228 0.72696912 1.8681549
1.3231524 0.73848927 1.9047086
1.311428 0.74065191 1.9169797
1.300124 0.74310684 1.9299778
1.290272 0.74646169 1.9453044
1.2978823 0.76012653 1.9877807
1.2706203 0.75345391 1.976642
1.2704343 0.76287133 2.0079851
1.2523382 0.76163715 2.0110648
1.2402035 0.76404393 2.0237589
1.2259964 0.76522034 2.0331163
1.193845 0.75507879 2.0120201
1.1844931 0.75927824 2.0293
1.1683586 0.75918525 2.0349698
1.1503452 0.75785208 2.0371962
1.1236349 0.75067109 2.0234361
1.1148673 0.75544327 2.0420396
1.0964987 0.7537536 2.0429845
1.0693508 0.74589074 2.0269186
1.0616462 0.75155759 2.0477989
1.0378199 0.74581039 2.0372617
1.0256273 0.74837536 2.0494969
1.0003893 0.74135298 2.0351653
0.98938316 0.74482185 2.0497456
0.96689081 0.73961627 2.0401802
0.93343079 0.72571307 2.0062361
0.92601502 0.73193264 2.0282171
0.90597856 0.7282185 2.0223973
0.89709562 0.73349583 2.041667
0.87901783 0.73130834 2.0399396
0.84705013 0.71728092 2.0047586
0.84958863 0.73249447 2.0518579
0.81600714 0.71655297 2.0109477
0.80537051 0.72053885 2.0262423
0.79695702 0.7267049 2.0476909
0.76711345 0.71318865 2.0131433
0.75297165 0.71402234 2.0192649
0.72423589 0.70076883 1.9851013
0.71916628 0.71033949 2.0159981
0.71090126 0.71709359 2.0388439
0.69626689 0.7175765 2.0436816
0.67534947 0.71146208 2.0294836
0.66224784 0.71349055 2.0385931
0.63879651 0.70420384 2.0150189
0.62240046 0.70243829 2.0130043
0.60797238 0.70286173 2.0172288
0.60334384 0.71491808 2.0550716
0.57903874 0.70367956 2.0253778
0.56024033 0.69871855 2.0137491
0.54533029 0.69847 2.0157108
0.52874565 0.69600356 2.011138
0.51948047 0.70330572 2.0349519
0.50152427 0.69892496 2.0246427
0.48704228 0.69926733 2.0280311
0.47104532 0.69738799 2.0248489
0.45346481 0.69296789 2.0141392
0.43706319 0.69011515 2.0079246
0.42019278 0.68630058 1.9987968
0.40366256 0.6827895 1.9904672
0.38564804 0.67641556 1.9736284
0.37311214 0.67953074 1.9846126
0.36579579 0.69277966 2.0253954
0.35036746 0.6911279 2.0222418
0.33145908 0.68217075 1.9974536
0.32058871 0.68969429 2.02122
0.30404767 0.68515354 2.0092978
0.29010782 0.68631393 2.0141454
0.27254429 0.67857403 1.9925905
0.25844434 0.67907792 1.9953469
0.24397698 0.67861915 1.9951838
0.22974059 0.67878562 1.9968041
0.21650292 0.68212074 2.0077546
0.20246276 0.68322194 2.0120168
0.18355916 0.66682404 1.9642618
0.1739125 0.6841231 2.0164788
0.1570096 0.67342526 1.9854838
0.14244382 0.67162198 1.980835
0.12783045 0.66917199 1.9741923
0.11266937 0.66289252 1.9560889
0.099335082 0.66710478 1.9691199
0.085822217 0.67130798 1.9820635
0.070499673 0.66022199 1.9494442
0.051795334 0.6042366 1.7831048
0.035427649 0.54791701 1.615665
0.023888607 0.54793799 1.6158676
0.012341325 0.5476324 1.6150436
0.0007989232 0.54190594 1.5980252
-0.010676725 0.54508644 1.6074712
-0.022143645 0.54475647 1.606411
-0.034106996 0.55269611 1.6299146
-0.048564807 0.58673197 1.7310352
-0.065744109 0.63317037 1.8689816
-0.082690969 0.66208547 1.9546775
-0.097880505 0.67061561 1.9796296
-0.11193913 0.67022318 1.9779656
-0.12633847 0.67173016 1.9818827
-0.1405995 0.67227232 1.9828618
-0.15663856 0.680439 2.006428
-0.16958202 0.67491657 1.9892479
-0.18315665 0.67256594 1.9814309
-0.19905488 0.67847282 1.9980568
-0.21509802 0.68404925 2.0136178
-0.22945265 0.68389279 2.0120976
-0.24345729 0.68277335 2.0076549
-0.2562117 0.67846793 1.9937125
-0.27030095 0.67796564 1.9909712
-0.28329894 0.67491388 1.9806234
-0.30064154 0.68200958 2.0002086
-0.31959534 0.69194645 2.028085
-0.33145446 0.68632615 2.0099373
-0.34770766 0.68989384 2.0188375
-0.36310616 0.69154763 2.0220101
-0.37666494 0.68970501 2.0148118
-0.38888386 0.68563712 2.0010066
-0.40521058 0.68884343 2.0085258
-0.42108616 0.6910879 2.0131314
-0.43984026 0.6977486 2.0306017
-0.45145023 0.69301188 2.0145733
-0.46944475 0.6980657 2.0271492
-0.48019373 0.69236565 2.008188
-0.4994981 0.69897348 2.0251229
-0.51581866 0.70114708 2.0290091
-0.53055066 0.70110071 2.02634
-0.53620154 0.6893813 1.9896461
-0.56149518 0.70286828 2.0261829
-0.57313704 0.69901234 2.012233
-0.585935 0.69672412 2.0027802
-0.60920382 0.70669425 2.028729
-0.62482339 0.70752716 2.028127
-0.63791168 0.70552176 2.0192556
-0.64974666 0.70225298 2.0066881
-0.66648501 0.70431131 2.0093887
-0.68238759 0.70541614 2.0092566
-0.69894451 0.70713592 2.0107994
-0.71429688 0.70759052 2.0086293
-0.72772241 0.70615703 2.0009856
-0.74535292 0.70877939 2.0048399
-0.75771666 0.70638895 1.9943267
-0.77406937 0.70773762 1.9943794
-0.79394233 0.71219319 2.0031452
-0.80619389 0.7097736 1.9923354
-0.81977677 0.70859283 1.9849716
-0.83513242 0.70895916 1.9819018
-0.84787965 0.70713735 1.972597
-0.86774331 0.71121103 1.9797745
-0.89661849 0.72240698 2.0067604
-0.90870029 0.71992475 1.9953245
-0.92225915 0.71867496 1.9872745
-0.93736875 0.71865451 1.982578
-0.9524622 0.71862239 1.97777
-0.9654578 0.71703327 1.9685743
-0.97879672 0.7157442 1.9601483
-1.0079173 0.72585946 1.9830593
-1.0274276 0.72885489 1.9861966
-1.0263348 0.71736175 1.9495248
-1.0296849 0.70926219 1.9222097
-1.0539693 0.715608 1.9342908
-1.0945317 0.7326712 1.975319
-1.084178 0.71565086 1.9236609
-1.1018416 0.71733773 1.9227269
-1.1119277 0.71411234 1.9084548
-1.1344082 0.71882707 1.9154829
-1.1209221 0.70092696 1.8617922
-1.0424962 0.64341241 1.7025412
-0.92434937 0.56317341 1.4836711
-0.88049293 0.52965677 1.3900455
-0.85375565 0.50714773 1.326041
-0.87321997 0.51230055 1.3352956
-0.87664706 0.50803375 1.3196534
-0.8968156 0.51345479 1.3294054
-0.92518663 0.5233869 1.3507832
-1.0003639 0.55925208 1.4393895
-1.1319879 0.62547171 1.6059773
-1.1905128 0.65024215 1.6642265
1.3106443 0.69170833 1.8058236
1.2964048 0.69205123 1.8132921
1.3122079 0.70862585 1.8637379
1.2851259 0.70215881 1.8531023
1.3091515 0.72379404 1.917313
1.3037001 0.7294569 1.9390455
1.2890913 0.73007154 1.9472307
1.2816913 0.73483431 1.9665356
1.2689537 0.73661762 1.9777826
1.2606835 0.74107212 1.996231
1.2732602 0.75805235 2.0487816
1.2420619 0.74907291 2.0306294
1.2224481 0.74693555 2.0309901
1.2101476 0.7492696 2.043519
1.1762422 0.73810917 2.0188119
1.1649238 0.74101084 2.0327103
1.1455529 0.73879969 2.0323997
1.1211929 0.73326367 2.0227296
1.1133668 0.73853713 2.04302
1.084718 0.72995067 2.0245726
1.0718517 0.73188883 2.0354052
1.0554048 0.73140329 2.0393746
1.0359535 0.72878939 2.0372593
1.0153201 0.72525096 2.0324135
1.011922 0.73410547 2.0625145
0.97977924 0.72205704 2.0333447
0.95175481 0.71270448 2.0115967
0.93725711 0.71334064 2.0181179
0.91918486 0.71123207 2.0167243
0.90891325 0.71519023 2.0325949
0.88972068 0.71214426 2.0283337
0.8616637 0.70177203 2.0028837
0.8568185 0.7102716 2.0316162
0.84691209 0.71480805 2.0489252
0.82579577 0.70987588 2.0388062
0.81289476 0.7119531 2.0488737
0.78550804 0.7011795 2.0215521
0.77133268 0.70200789 2.0278001
0.75315303 0.69915235 2.023236
0.71955097 0.68157184 1.9755498
0.72441232 0.7004512 2.0342956
0.7113843 0.70246756 2.0437245
0.69095671 0.697106 2.0314322
0.67104113 0.69203454 2.0198631
0.65803361 0.69401878 2.0289528
0.6474998 0.69876468 2.0461316
0.62170982 0.68688083 2.0141399
0.61029232 0.69068396 2.0283864
0.5949862 0.69016618 2.0297854
0.5799526 0.68994623 2.0319881
0.56416196 0.68879044 2.0313325
0.53954679 0.67650759 1.9974853
0.53006667 0.68304682 2.0195444
0.51563841 0.68340111 2.0231292
0.50050807 0.68281823 2.0238438
0.48517525 0.68191558 2.0235243
0.46880603 0.67945445 2.0184603
0.4564679 0.68286544 2.0309033
0.43676263 0.67511576 2.0098155
0.41796216 0.66827941 1.9913501
0.40693727 0.67383134 2.0100093
0.39277971 0.67441463 2.0136797
0.38068062 0.67871255 2.0284688
0.36253235 0.67213821 2.0104399
0.34658927 0.66927582 2.0035036
0.33184293 0.66857654 2.0030129
0.32110614 0.67625809 2.0277696
0.30214483 0.66652548 1.9998389
0.28910086 0.66952711 2.0103257
0.27349955 0.66661036 2.0028362
0.25886607 0.66586041 2.0018306
0.24460404 0.6660338 2.0035522
0.22667173 0.65561312 1.9730735
0.21352422 0.65856713 1.9830797
0.19949284 0.6590212 1.9854373
0.18246102 0.6488744 1.9555287
0.17087854 0.65803117 1.9841849
0.15778731 0.66250724 1.9985672
0.14126049 0.65201473 1.9673724
0.12737241 0.65273112 1.9701865
0.11458858 0.65998489 1.9928278
0.10002118 0.65756512 1.9859709
0.084986441 0.65076947 1.9657221
0.067249522 0.61652052 1.8618077
0.048281513 0.55138218 1.6637279
0.035349477 0.5351935 1.6146226
0.023738667 0.53303087 1.6081749
0.012270993 0.53304332 1.6082979
0.00080183195 0.53242403 1.6064423
-0.010671729 0.53335637 1.6092591
-0.02215917 0.53365684 1.6100969
-0.033698358 0.53457314 1.6127559
-0.04524992 0.53516948 1.6143856
-0.056892455 0.53638154 1.6178355
-0.072166577 0.56564963 1.706642
-0.092184596 0.61828858 1.8664899
-0.11079414 0.64939612 1.9606817
-0.12636697 0.65773094 1.9854802
-0.1389 0.65015829 1.9618195
-0.15403663 0.65504324 1.9759799
-0.16970049 0.66116327 1.9938158
-0.18571103 0.66758293 2.0124791
-0.19695354 0.65717161 1.9799531
-0.2137477 0.66543823 2.0040734
-0.22587818 0.65905952 1.983677
-0.24249318 0.66574615 2.0028422
-0.25578979 0.66308475 1.9935924
-0.27150241 0.66663671 2.0030973
-0.28522927 0.66520095 1.9974269
-0.30085024 0.66810894 2.0048277
-0.31468463 0.66696501 1.9999031
-0.32984483 0.66860831 2.0033295
-0.343631 0.66744548 1.9982122
-0.35952726 0.67030996 2.0051708
-0.37051907 0.66416228 1.9849011
-0.38933212 0.67197019 2.0065873
-0.40865794 0.68007237 2.0290434
-0.42484921 0.68257833 2.034574
-0.43754929 0.67949528 2.0232482
-0.44990581 0.67609519 2.0109191
-0.46508878 0.67702246 2.0114946
-0.48096177 0.6788674 2.0147355
-0.49306771 0.67544323 2.002152
-0.50432473 0.67108542 1.986734
-0.52303261 0.67660892 2.0007193
-0.5380404 0.67717624 1.9998404
-0.55281234 0.67742467 1.9979352
-0.56706983 0.67704618 1.994094
-0.58342165 0.67912453 1.9974633
-0.60120875 0.68273109 2.0052638
-0.61858273 0.68570787 2.0110967
-0.62783015 0.67974722 1.990455
-0.63652807 0.67347652 1.9688783
-0.64138955 0.66351634 1.9364316
-0.68194103 0.69010717 2.0113506
-0.69848979 0.69179219 2.0129125
-0.71098679 0.68947768 2.0026739
-0.72821659 0.69175375 2.0057945
-0.74421394 0.69279122 2.0052013
-0.76124913 0.69473517 2.0071588
-0.75887728 0.67923397 1.9583242
-0.77255732 0.67841423 1.9521642
-0.80390668 0.69285345 1.9901048
-0.81997269 0.6938346 1.9889239
-0.83606637 0.6948036 1.9876183
-0.85106736 0.69484657 1.9835579
-0.87516123 0.70218354 2.0003576
-0.88103402 0.69490004 1.9751068
-0.90069938 0.69855678 1.981137
-0.91492772 0.69794589 1.9748713
-0.93154132 0.69914484 1.9736832
-0.95106035 0.70245177 1.9783827
-0.96403497 0.70089704 1.969192
-0.97650802 0.69903123 1.9590642
-0.99146128 0.6989705 1.9539689
-1.0063953 0.69889826 1.9487627
-1.0274801 0.70303667 1.9552813
-1.0424573 0.70293665 1.9498101
-1.0456383 0.69499886 1.9224074
-1.0691323 0.70059597 1.9326816
-1.0802792 0.69805902 1.9202359
-1.0974264 0.69941556 1.9185169
-1.0945839 0.68816805 1.8819472
-1.0560431 0.6550765 1.7854308
-0.93752205 0.57389748 1.5575765
-0.8924275 0.5391919 1.4579873
-0.89598221 0.53439313 1.4403886
-0.88060623 0.51856804 1.3928683
-0.85282218 0.4959237 1.3271013
-0.86348444 0.4959195 1.3227638
-0.87360537 0.49560818 1.3175466
-0.89269197 0.50032949 1.3257712
-0.905523 0.50147402 1.3243016
-0.91837871 0.50260502 1.3227217
-0.93289632 0.50460869 1.3233825
-0.93974429 0.50246537 1.3129894
1.3166004 0.67990226 1.817561
1.312804 0.68572789 1.8399165
1.2956153 0.68461233 1.8434639
1.3141955 0.70259339 1.8989481
1.3095299 0.70842671 1.921482
1.3083203 0.71629238 1.9496224
1.2905107 0.71515083 1.9530364
1.2862099 0.72155958 1.9772005
1.2749593 0.72418082 1.9909064
1.2605358 0.7250433 1.9996897
1.2204806 0.71099603 1.9668381
1.2325042 0.72731668 2.0185895
1.2203437 0.72960746 2.0311821
1.2138739 0.73540682 2.0536017
1.1770408 0.72271931 2.0238698
1.1614654 0.72291565 2.0303056
1.1542491 0.72839254 2.0516467
1.1224095 0.71826625 2.0285892
1.0896008 0.70722204 2.0026703
1.0872393 0.71590632 2.0329454
1.0694777 0.71455628 2.0344846
1.0360622 0.70255136 2.0052745
1.0228938 0.70412004 2.014946
1.0062541 0.70331097 2.0176842
0.98503846 0.69922817 2.010843
0.94175869 0.67910558 1.9572701
0.95725232 0.70139909 2.0268416
0.93788129 0.69845825 2.0229905
0.93158388 0.7053178 2.0476851
0.89637005 0.69014585 2.0078015
0.88955134 0.69669008 2.0314429
0.86148781 0.68653351 2.0059152
0.84929234 0.68888563 2.017087
0.83083636 0.68615294 2.0131745
0.8188805 0.68878657 2.0250471
0.80505592 0.68991798 2.0324121
0.77985954 0.68116027 2.0103011
0.76848054 0.68436456 2.0236535
0.7553041 0.68606418 2.0324712
0.74042583 0.68625569 2.0367188
0.72330713 0.68433559 2.034564
0.70377177 0.67999882 2.0250597
0.69111204 0.68226129 2.0352693
0.67983693 0.68602145 2.0499322
0.65643001 0.67743224 2.0273154
0.64165479 0.6775589 2.0308633
0.61933619 0.66953677 2.0096889
0.60743117 0.67265582 2.0221138
0.59192693 0.67184526 2.0225704
0.57748687 0.67223197 2.0265818
0.56099856 0.67019218 2.0231404
0.54656172 0.67055917 2.026938
0.52826297 0.66607708 2.0158763
0.51528454 0.66823894 2.0249927
0.50265908 0.67099905 2.0358801
0.48880589 0.67223752 2.0420566
0.47190011 0.66922414 2.0351398
0.45180383 0.66134667 2.0132091
0.4362551 0.65982318 2.0106652
0.42154229 0.6595028 2.0117378
0.40739977 0.66008347 2.0155089
0.39123759 0.65731394 2.0088944
0.37884831 0.66091377 2.0218265
0.36177272 0.65629935 2.0093648
0.34553695 0.6528883 2.0005243
0.33407435 0.65859139 2.0197601
0.31718981 0.65363824 2.0059986
0.30263248 0.65323818 2.0062354
0.28983524 0.65678668 2.0186293
0.27355829 0.65240866 2.0064044
0.25855851 0.65076053 2.002558
0.24465673 0.65184474 2.0071142
0.23038091 0.65200526 2.008738
0.21468051 0.64788795 1.9970061
0.19661041 0.63552535 1.9595704
0.1867934 0.64998972 2.0054374
0.17172433 0.64706081 1.9971765
0.15574169 0.63984942 1.9755158
0.14122224 0.63781416 1.9698831
0.12806854 0.64217842 1.9841052
0.11369228 0.64073431 1.9801787
0.099710204 0.64141738 1.9828098
0.083170347 0.62316114 1.9263604
0.063347191 0.56825066 1.7555883
0.0468117 0.52309507 1.6151057
0.035229482 0.52190149 1.6115783
0.023643792 0.51947844 1.6041629
0.012250691 0.52071208 1.6080941
0.00080238341 0.52132744 1.6100433
-0.010654087 0.52101868 1.6090574
-0.022083685 0.52039665 1.607041
-0.033524793 0.52037787 1.6068513
-0.044858839 0.51912969 1.6027756
-0.056600552 0.52214867 1.6119466
-0.068235107 0.52332759 1.6153263
-0.08001332 0.52510905 1.6205273
-0.098042689 0.56229275 1.7359363
-0.11974148 0.60983682 1.8834852
-0.1394617 0.63874304 1.9728671
-0.15296897 0.63650769 1.9652197
-0.1695767 0.64646679 1.9954418
-0.18245618 0.64177167 1.9800085
-0.19848946 0.64804745 1.9986161
-0.2127929 0.64821303 1.9981579
-0.22795442 0.65080774 2.005172
-0.24163777 0.64912498 1.9988364
-0.25596437 0.64926153 1.9980801
-0.27118042 0.65152067 2.0038333
-0.28662455 0.65407342 2.0104182
-0.30189559 0.65600634 2.0150039
-0.31533885 0.65397227 2.0072424
-0.32930204 0.65314686 2.0031559
-0.34290421 0.65170431 1.9970976
-0.35927117 0.65542132 2.0068967
-0.37648761 0.6603415 2.0203152
-0.39247355 0.66281837 2.0261095
-0.40576419 0.66072887 2.0177672
-0.42050257 0.66105974 2.0168061
-0.435249 0.66138077 2.0157409
-0.44897175 0.6601758 2.0099201
-0.46306124 0.65956855 2.005867
-0.47843364 0.66077024 2.0072827
-0.48978451 0.65651047 1.9919189
-0.51210195 0.66677356 2.0208647
-0.52433944 0.663706 2.0090005
-0.53889209 0.66365588 2.006278
-0.55242646 0.66238743 1.9997753
-0.56408852 0.65899676 1.9867617
-0.59070188 0.67280549 2.0258853
-0.60188168 0.66879016 2.0108147
-0.61510426 0.66718203 2.0029864
-0.6217075 0.65863639 1.974141
-0.63491637 0.65731835 1.9670988
-0.6745171 0.68277407 2.0406175
-0.68118018 0.67450637 2.0124273
-0.68593061 0.6647374 1.979736
-0.70386386 0.66788512 1.9857696
-0.72966933 0.67822117 2.0131953
-0.73318565 0.66784066 1.9785801
-0.7634328 0.6817382 2.016355
-0.77476728 0.67853683 2.0030348
-0.79083019 0.67951936 2.002094
-0.79947722 0.6742115 1.9824238
-0.80861008 0.66949922 1.9644992
-0.83368498 0.67791873 1.9853088
-0.84192574 0.67259419 1.9654593
-0.86283666 0.67740053 1.9753712
-0.8850925 0.68308181 1.9877092
-0.88444108 0.67118949 1.9484748
-0.91673172 0.68427646 1.9822417
-0.93418419 0.68604392 1.9827851
-0.95333713 0.68898422 1.9866325
-0.96467865 0.68627536 1.9739832
-0.98096627 0.68711454 1.971552
-0.9904092 0.68320656 1.9553359
-1.0044596 0.68254632 1.9484411
