# .PCD v0.7 - Point Cloud Data file format
VERSION 0.7
FIELDS x y z
SIZE 4 4 4
TYPE F F F
COUNT 1 1 1
WIDTH 1494
HEIGHT 1
VIEWPOINT 0 0 0 1 0 0 0
POINTS 1494
DATA ascii
-0.68566245 0.41610202 2.0235229
-0.70649332 0.41979828 2.0382748
-0.71094769 0.41381142 2.0055993
-0.72993737 0.41635522 2.0145383
-0.74942714 0.41907889 2.0242329
-0.76184416 0.41781864 2.0144484
-0.77767944 0.41844535 2.0137594
-0.78639007 0.4152863 1.9946576
-0.80470836 0.41722366 2.0001569
-0.82166302 0.41839737 2.0018601
-0.83265585 0.41654739 1.9889134
-0.84657741 0.41620103 1.9831452
-0.87486923 0.42281145 2.0106413
-0.87510419 0.41586798 1.9731146
-0.90219104 0.42170367 1.9966246
-0.91822493 0.42226785 1.9948369
-0.92599589 0.41907462 1.9751107
-0.95372623 0.42487291 1.9979833
-0.97585088 0.4280338 2.0081789
-0.99686998 0.43062124 2.0155175
-0.99345952 0.42273611 1.9734443
-1.0113268 0.42400399 1.9744296
-1.0242975 0.42321184 1.9656616
-1.0362852 0.42204213 1.9550692
-1.0518867 0.42235634 1.9513357
-1.0599802 0.41968909 1.9336684
-1.0845238 0.42351899 1.9460791
-1.1136301 0.42900294 1.9659514
-1.1177238 0.42483354 1.9411427
-1.1457067 0.42973435 1.9580153
-1.161001 0.42981037 1.9525851
-1.1560682 0.4224923 1.9133172
-1.1889844 0.42901659 1.9371717
-1.1711072 0.41727933 1.8779069
-1.2021369 0.42304286 1.8980531
-1.2366812 0.42988753 1.9228306
-1.2513223 0.42973188 1.9158702
-1.2529619 0.42516807 1.8890896
-1.2744933 0.42738226 1.8926268
-1.2812399 0.42464465 1.8739872
-1.3212383 0.43286407 1.9039379
1.4149857 0.44151029 2.0077038
1.3923759 0.4394452 2.0052993
1.3709768 0.43771869 2.0043092
1.3540386 0.43739256 2.0096662
1.3657855 0.44643503 2.0584505
1.3131846 0.43440855 2.0092335
1.3047854 0.43688929 2.0274003
1.2747173 0.43208632 2.0113921
1.2584121 0.4318867 2.016819
1.2456821 0.43292463 2.0279982
1.2237477 0.43074918 2.0239103
1.1959311 0.42641994 2.0094495
1.1382201 0.41117778 1.9428114
1.1645491 0.42629299 2.020664
1.1497996 0.42657614 2.0278041
1.1435887 0.43007827 2.0503297
1.125832 0.42927524 2.0521286
1.0955716 0.42361492 2.0303648
1.0808016 0.423868 2.0370054
1.0868015 0.43239194 2.0837209
1.0391128 0.41949207 2.0262935
1.0420089 0.42693323 2.0677154
1.0239892 0.42590019 2.0677843
0.99276447 0.4192588 2.0402462
0.98937982 0.42435086 2.0701365
0.95946425 0.41804472 2.0439124
0.94060498 0.41643029 2.0406277
0.92990094 0.41843262 2.0551224
0.89881599 0.41117805 2.0236728
0.88500571 0.41171423 2.0307052
0.86730433 0.41042754 2.0285904
0.84892416 0.40876886 2.024513
0.84364921 0.4134739 2.0521436
0.81576061 0.40706563 2.024107
0.80732369 0.41030625 2.0443034
0.78913337 0.40861857 2.0396962
0.77624094 0.4096621 2.0487404
0.75613159 0.40686306 2.0383294
0.73620772 0.40405414 2.0277398
0.73052567 0.40910634 2.0568428
0.70140797 0.40097135 2.0190458
0.69483149 0.40565056 2.0461593
0.67653763 0.40354365 2.0387299
0.66289872 0.40418145 2.0451841
0.63742328 0.39746755 2.014035
0.62624097 0.39956132 2.0277469
0.61377561 0.40091643 2.0376332
0.59818041 0.40024346 2.0370646
0.58396721 0.40048465 2.0411067
0.56134647 0.39482477 2.0147359
0.54959178 0.39671093 2.0270677
0.53271878 0.39490461 2.0203166
0.52008528 0.39622805 2.0296242
0.5005163 0.39219242 2.0111845
0.4901616 0.39535201 2.0298479
0.47023174 0.390746 2.0082593
0.45688376 0.39149264 2.0142992
0.44284844 0.39167935 2.0173717
0.43000883 0.39297122 2.026118
0.41471949 0.39203623 2.0232282
0.39816689 0.38979793 2.0134759
0.38341287 0.38922009 2.012284
0.37326851 0.39345688 2.0361228
0.35587555 0.39008617 2.0202315
0.33920807 0.38726377 2.0071068
0.32647958 0.38888866 2.0171359
0.31258518 0.38920897 2.0202873
0.29823592 0.3889665 2.0204284
0.28227141 0.38648826 2.0087912
0.26506329 0.3819581 1.9863175
0.25013554 0.38039431 1.9793051
0.23681913 0.38124141 1.9848677
0.21908674 0.37464249 1.9512824
0.18999335 0.34645113 1.8041927
0.15608157 0.30484167 1.5863971
0.14510742 0.30509201 1.5884029
0.13632099 0.31036466 1.6167699
0.12797487 0.31768292 1.6558677
0.1186175 0.32369506 1.6880658
0.10925189 0.33100802 1.7270771
0.10006437 0.34073973 1.7787919
0.090071991 0.35009602 1.8284984
0.080221094 0.36317566 1.897783
0.067148447 0.36395267 1.9022125
0.055260558 0.37311074 1.9507481
0.041872744 0.37480897 1.9599191
0.028403025 0.37706065 1.971947
0.014725655 0.37818825 1.9779884
0.00096573035 0.37912366 1.9829546
-0.012880993 0.38061219 1.9907738
-0.026652366 0.37948531 1.984744
-0.041096255 0.38543513 2.0159481
-0.054959409 0.38429627 2.0097272
-0.069139816 0.38538781 2.0151961
-0.083237484 0.38572782 2.0166402
-0.09731137 0.38587537 2.0170052
-0.1116631 0.3869485 2.0221798
-0.12584873 0.38727018 2.0233312
-0.1414016 0.39131078 2.0439887
-0.15517178 0.39012998 2.0370975
-0.17038932 0.39248103 2.0487199
-0.18332225 0.38961297 2.0328293
-0.20019507 0.39492896 2.0598922
-0.21340652 0.3927938 2.0477266
-0.22667539 0.39102575 2.0374327
-0.24107279 0.39129832 2.0377893
-0.25621393 0.39268038 2.0438962
-0.26927423 0.39089578 2.0333314
-0.28354892 0.39096457 2.032419
-0.29669216 0.38954139 2.0236294
-0.31372911 0.39312708 2.0409837
-0.32900652 0.39429128 2.0455866
-0.34129238 0.39192298 2.0316613
-0.3592923 0.39604306 2.0515504
-0.37233448 0.3945913 2.0422804
-0.38635629 0.39424703 2.0387244
-0.40185395 0.39537942 2.0427897
-0.41723192 0.3963199 2.0457764
-0.42884049 0.39373666 2.0303755
-0.44733799 0.39744097 2.0475674
-0.46244118 0.39799201 2.0482991
-0.47336838 0.39502475 2.0307298
-0.4854449 0.3931632 2.0188444
-0.50184101 0.3948065 2.0250235
-0.52244949 0.39958009 2.0472701
-0.53421867 0.39751771 2.0341406
-0.55194008 0.39987651 2.0437312
-0.5700826 0.40241128 2.0541232
-0.58277798 0.40107042 2.044502
-0.60112607 0.4035902 2.0546272
-0.60701555 0.39782467 2.0222058
-0.61765653 0.39536926 2.0067236
-0.64132911 0.40117744 2.033407
-0.65309727 0.39944616 2.0214806
-0.66534716 0.39807844 2.0113575
-0.67655194 0.39615706 1.998367
-0.69719744 0.39972851 2.0132098
-0.71189076 0.39981112 2.0102403
-0.72724432 0.40025389 2.0090151
-0.74837792 0.40379789 2.0233641
-0.76388067 0.40422577 2.021867
-0.77905089 0.40446478 2.0193346
-0.79172093 0.40342095 2.0102787
-0.80685657 0.40364867 2.0075371
-0.83830303 0.41188219 2.0447567
-0.84279352 0.40681487 2.0153382
-0.8565011 0.4062947 2.0085952
-0.874834 0.40794912 2.012594
-0.88456112 0.40560225 1.9966296
-0.90255594 0.40706119 1.9994744
-0.91492176 0.40597534 1.9896394
-0.9247123 0.40379941 1.9743774
-0.94191188 0.40487626 1.9750768
-0.95106012 0.40251243 1.9587966
-0.98081762 0.40881041 1.9848737
-1.0026445 0.41166404 1.9939095
-1.0086188 0.4080207 1.971163
-1.0229064 0.40779734 1.9650342
-1.0348747 0.40666896 1.9544473
-1.044432 0.40463832 1.9394498
-1.0571227 0.40386117 1.9304646
-1.0811588 0.40738031 1.9420639
-1.0957794 0.40730447 1.9362645
-1.1211045 0.41115648 1.9491547
-1.1274163 0.40802586 1.9285915
-1.140993 0.4075717 1.9207498
-1.1661451 0.41121098 1.9322293
-1.1695279 0.40717888 1.9073011
-1.2010716 0.41292945 1.928462
-1.2366337 0.41990232 1.9551114
-1.2424806 0.41673833 1.9340541
-1.2475617 0.41339684 1.9121844
-1.2615891 0.41306409 1.9043205
-1.2630051 0.40865874 1.8775237
-1.2861903 0.4113175 1.8833976
-1.3061749 0.41290334 1.8841742
1.4307971 0.43019772 2.0325198
1.388467 0.42226499 2.0017951
1.3731868 0.42246994 2.0097337
1.3518445 0.42079288 2.0085442
1.3452108 0.42370859 2.0293825
1.317994 0.42013347 2.0188026
1.304774 0.42098722 2.0295398
1.286754 0.4202942 2.0326827
1.245953 0.41204992 1.9988075
1.2267027 0.41081437 1.9989654
1.2135934 0.41163003 2.0090921
1.2149234 0.41742796 2.0437369
1.1856583 0.41272822 2.02653
1.1703813 0.41283736 2.0329647
1.1579731 0.41397503 2.0444362
1.1306889 0.40975294 2.0291119
1.107446 0.40689847 2.0204306
1.0857785 0.40455067 2.0141304
1.0688431 0.40392423 2.0163436
1.0546496 0.4043307 2.0236666
1.0404106 0.40473157 2.0308893
1.0230459 0.40391022 2.0318444
0.99226755 0.39768803 2.0052547
0.9905839 0.40311456 2.0377603
0.95940202 0.39651889 2.0089383
0.95692968 0.40176788 2.0404885
0.9303301 0.39689291 2.0201569
0.92744231 0.40213975 2.0516596
0.89757955 0.39567024 2.0228443
0.88378906 0.3961865 2.0298681
0.87225431 0.39774925 2.0422366
0.85568148 0.39702907 2.0427239
0.83245885 0.39314276 2.0266702
0.81534976 0.39205492 2.025022
0.80082041 0.39219028 2.0296514
0.78662264 0.39249614 2.0350957
0.77066076 0.39191666 2.0358336
0.75337106 0.39062595 2.0327535
0.74383312 0.39338332 2.0508342
0.713157 0.38484615 2.0094612
0.70360881 0.38759232 2.0273266
0.69039536 0.38839325 2.0348949
0.67434502 0.3875984 2.0339634
0.66255993 0.38927421 2.0460265
0.64504415 0.38758272 2.0401824
0.62274462 0.3828716 2.0181975
0.61599261 0.38772252 2.0469272
0.59181672 0.38157558 2.0170748
0.56674266 0.37452823 1.9822564
0.54899383 0.37208492 1.9718552
0.54955769 0.38225085 2.02878
0.53392947 0.38139883 2.0267751
0.51641822 0.37911716 2.0170231
0.50142628 0.37860769 2.0166821
0.4931103 0.38325685 2.0439837
0.46975535 0.37614524 2.0080042
0.45706996 0.37739992 2.0169251
0.44156435 0.37633169 2.0132685
0.42329526 0.37275892 1.9960159
0.40940198 0.37292627 1.9988583
0.40003422 0.37737471 2.0247791
0.38210931 0.37378114 2.0071588
0.37060666 0.37643522 2.0232718
0.35348299 0.37336382 2.0083079
0.33983609 0.37386212 2.0126135
0.32412031 0.37202895 2.0041993
0.30928332 0.37108397 2.0005291
0.29608005 0.37210256 2.0074596
0.27818012 0.36702594 1.9811742
0.2640124 0.36659935 1.9800996
0.25134063 0.36831766 1.9906396
0.23784262 0.36895567 1.9952384
0.21863422 0.36026356 1.948904
0.18098778 0.31801969 1.7194301
0.15204787 0.28615695 1.5463363
0.14135975 0.28639683 1.5483167
0.13016064 0.28555545 1.5443426
0.11924827 0.28524792 1.5432321
0.10842566 0.28511545 1.5430276
0.097734578 0.2853376 1.5447125
0.086587496 0.28411862 1.538467
0.076442398 0.28630766 1.5508121
0.065101616 0.28400186 1.5385194
0.054621983 0.28528416 1.545809
0.044679977 0.29069442 1.575645
0.034058105 0.29376513 1.5926322
0.023695569 0.30312029 1.643975
0.012539157 0.31031516 1.6834455
0.00085926452 0.32505217 1.7641565
-0.01175682 0.33475301 1.8172405
-0.025131382 0.3448076 1.8722011
-0.038688146 0.34964567 1.8985401
-0.053142738 0.35807112 1.9444494
-0.068801068 0.36954403 2.0069633
-0.08274962 0.36951259 2.0064464
-0.09763445 0.37306786 2.0254865
-0.11165635 0.3728449 2.0237901
-0.12565947 0.37261623 2.0219984
-0.14105713 0.37615234 2.0407221
-0.15419963 0.37357786 2.0259778
-0.16900532 0.37512669 2.0337017
-0.1820848 0.37290066 2.0207419
-0.19725876 0.37497574 2.0312028
-0.21157433 0.3752504 2.0317657
-0.22536771 0.37462255 2.0273404
-0.2408296 0.37667853 2.0374799
-0.25559258 0.37747309 2.0406697
-0.27002695 0.3777239 2.0408282
-0.28434098 0.37778974 2.0399117
-0.29738158 0.37623814 2.0301342
-0.31296971 0.37790415 2.0377827
-0.3271282 0.37777391 2.0355988
-0.34305015 0.37960586 2.0439932
-0.35876718 0.38107324 2.0503278
-0.37406331 0.38199756 2.0536394
-0.38815072 0.38166472 2.0500703
-0.40296093 0.38204104 2.0502691
-0.41038126 0.37562728 2.013715
-0.42498195 0.37599474 2.0137546
-0.4396036 0.37635642 2.0136898
-0.4536007 0.37617752 2.0106399
-0.47178817 0.37937903 2.0257096
-0.48632663 0.37954411 2.0243533
-0.50955868 0.38629013 2.0582514
-0.51952243 0.38288212 2.0375495
-0.53096235 0.3807171 2.0234759
-0.5457983 0.38103724 2.0226507
-0.5588221 0.38010818 2.0150769
-0.57364315 0.3804175 2.0140495
-0.59944731 0.38781741 2.0507209
-0.61062735 0.38562873 2.0361969
-0.62537193 0.38574076 2.0338545
-0.63776577 0.38443065 2.0238912
-0.65455818 0.38577121 2.0279145
-0.65088826 0.37525633 1.9691432
-0.68496335 0.38648692 2.0252919
-0.70834142 0.39133912 2.04755
-0.71641117 0.38770834 2.0250034
-0.73717415 0.39095479 2.0385764
-0.75104529 0.39049047 2.0325513
-0.7614187 0.38826051 2.0172138
-0.77900523 0.38972342 2.0211391
-0.78558648 0.38572839 1.9964904
-0.80753732 0.38928804 2.0111721
-0.81935245 0.3879216 2.0001097
-0.83595902 0.38883185 2.0008023
-0.84226769 0.38500342 1.9768765
-0.87205851 0.39185661 2.0081136
-0.88688612 0.3918696 2.003875
-0.90290803 0.39240125 2.0022233
-0.91364485 0.39065591 1.988798
-0.92590213 0.38960576 1.9788922
-0.93849128 0.38872597 1.9698017
-0.95441991 0.3892352 1.9677297
-0.96950352 0.38938957 1.9637622
-0.9841435 0.38936383 1.9587981
-0.99074733 0.38620627 1.9379151
-1.0106608 0.3882533 1.9432904
-1.0380248 0.39306307 1.9624349
-1.0485501 0.39145085 1.9491432
-1.0636432 0.39156511 1.944456
-1.0820577 0.39288208 1.9456892
-1.0976542 0.39315414 1.9416049
-1.1078848 0.39152262 1.9279841
-1.1135387 0.38833803 1.9066433
-1.1344453 0.39048639 1.9116325
-1.1610422 0.39451301 1.9257224
-1.1873833 0.39835191 1.9386926
-1.1865405 0.39308885 1.9069558
-1.1931652 0.39039934 1.8878458
-1.1958801 0.38651174 1.8629184
-1.245384 0.3976579 1.9108585
-1.2480336 0.39375588 1.8857133
-1.2738945 0.39718273 1.8958821
-1.2949904 0.39906144 1.8984376
-1.316744 0.40109724 1.9016047
1.4036862 0.40610799 1.9958028
1.3918003 0.40729383 2.0087304
1.3853357 0.4101122 2.0297573
1.3414153 0.40177813 1.9949929
1.3343507 0.40441614 2.0149508
1.3190353 0.40458682 2.0224853
1.3036824 0.40475002 2.0299044
1.2788557 0.4019396 2.0221705
1.2479829 0.39713508 2.0041225
1.2466477 0.40172741 2.0337725
1.20848 0.39441624 2.0025785
1.2068703 0.39900166 2.0321259
1.1801687 0.39530304 2.0190933
1.1766895 0.39938796 2.0460413
1.1622727 0.3998206 2.0541205
1.1387447 0.39708799 2.0456982
1.113042 0.39351064 2.032717
1.1094257 0.39775112 2.0603502
1.0701621 0.3891499 2.020823
1.0695293 0.39455059 2.0544324
1.0430338 0.39042902 2.038022
1.0256318 0.3896392 2.0389862
1.0074035 0.3885068 2.0380361
0.9734053 0.38116446 2.0040731
0.97410578 0.38739216 2.0419106
0.95728886 0.38674051 2.0432012
0.94091558 0.38624993 2.0452533
0.92698431 0.38676211 2.0525739
0.90228355 0.3827233 2.0354378
0.86419654 0.3727735 1.9863859
0.87027639 0.38186061 2.0394716
0.85486954 0.38167301 2.0426681
0.83686239 0.38029706 2.0393596
0.83575672 0.38669121 2.0780063
0.80327767 0.37853739 2.0377982
0.79221129 0.380357 2.0515413
0.77649444 0.37997079 2.0532331
0.75603664 0.37720415 2.0418558
0.73511046 0.37408862 2.0284412
0.71931648 0.37351105 2.0287805
0.70515984 0.3737773 2.0336585
0.67683333 0.36638442 1.9964088
0.6749109 0.37327397 2.0375032
0.66191012 0.37420622 2.0458264
0.64676589 0.37394136 2.0474861
0.62846172 0.37179491 2.0386705
0.60890412 0.3687872 2.0249808
0.5912196 0.36679521 2.0167973
0.5838902 0.3712883 2.0444899
0.55890626 0.36449793 2.0094924
0.54721534 0.36624768 2.0218287
0.53637844 0.36867884 2.0379121
0.51637715 0.36477104 2.01861
0.50633895 0.36787906 2.0383518
0.48550946 0.36309901 2.0139751
0.47906685 0.36911476 2.0498731
0.46243334 0.3674089 2.0425229
0.44362238 0.36380753 2.0244539
0.42852995 0.36311758 2.0226145
0.4091717 0.35864109 1.999426
0.39678353 0.36017263 2.0099061
0.38116455 0.3587763 2.0038548
0.367057 0.35875002 2.0054398
0.35260752 0.35837421 2.0049863
0.3391583 0.35902596 2.0102596
0.32534152 0.3593283 2.0134993
0.31060109 0.35859165 2.0108035
0.2990495 0.36164129 2.0294447
0.27761263 0.35244498 1.9787537
0.26411849 0.35289666 1.9825542
0.24948402 0.35179049 1.9774678
0.2360886 0.35240412 1.9820577
0.20979497 0.33264324 1.8710419
0.1734018 0.29318371 1.6480839
0.15210935 0.27546176 1.5482522
0.14123973 0.27534732 1.5482723
0.12947679 0.27332804 1.5374205
0.11907139 0.27406862 1.5421957
0.10833306 0.27411392 1.5429713
0.097835802 0.2748464 1.5476059
0.086567946 0.27332735 1.5393859
0.075849794 0.27335975 1.5399398
0.065128103 0.27338791 1.5404207
0.054403346 0.27341178 1.5408283
0.04381416 0.27429613 1.5460857
0.032946661 0.27344668 1.5414244
0.022215744 0.27345774 1.5416126
0.011549152 0.2750212 1.5505916
0.0007498464 0.27294803 1.5388144
-0.0099497037 0.27260023 1.5368133
-0.020595428 0.27190223 1.5327694
-0.031364884 0.2727567 1.5375164
-0.042440809 0.27516326 1.5510497
-0.055143569 0.28500164 1.6068321
-0.068536684 0.29448813 1.6605442
-0.083707273 0.30777222 1.735791
-0.10169378 0.3267538 1.8433602
-0.12583169 0.359036 2.0264592
-0.13929573 0.35742748 2.0167089
-0.15359502 0.35806045 2.0196395
-0.16964011 0.36231598 2.0430844
-0.18364875 0.36190027 2.0399168
-0.19743294 0.36113364 2.0346937
-0.2121657 0.36208856 2.0391772
-0.2261062 0.3616564 2.0357232
-0.24092665 0.36259961 2.0400021
-0.25545266 0.3630192 2.0412421
-0.27026361 0.363778 2.0443342
-0.28297147 0.36177188 2.0317085
-0.29778394 0.36251959 2.0346034
-0.31220508 0.36274448 2.0344708
-0.32927421 0.36589217 2.0507743
-0.3417314 0.36386615 2.0377901
-0.35554159 0.36338553 2.0334687
-0.37018442 0.36376011 2.0339019
-0.38775936 0.36688113 2.0497224
-0.40085897 0.36569592 2.0412254
-0.41522646 0.36570933 2.0394061
-0.43221191 0.36795059 2.0500224
-0.44457048 0.36623526 2.038357
-0.45614469 0.36400148 2.0237362
-0.46997809 0.36365145 2.0196133
-0.48651713 0.36535388 2.0268974
-0.50529444 0.36859158 2.0426619
-0.51803452 0.36736768 2.0334306
-0.52794385 0.36425695 2.0136335
-0.54346371 0.36507925 2.0156884
-0.55590409 0.36384377 2.0062263
-0.57225841 0.36516771 2.0109127
-0.58733422 0.36563104 2.0107377
-0.61507559 0.37376887 2.0529518
-0.62417579 0.37046355 2.0317311
-0.63683522 0.36937317 2.0227103
-0.65360761 0.37066376 2.0267513
-0.66218394 0.36735135 2.0053744
-0.6905514 0.37492543 2.043771
-0.69773936 0.37092429 2.0184875
-0.71309566 0.37134027 2.0173807
-0.73878503 0.3770127 2.0449154
-0.7459057 0.37317255 2.0203719
-0.75168967 0.36882442 1.993059
-0.77331924 0.37226859 2.0081115
-0.79304755 0.37468669 2.0174508
-0.80383235 0.37286821 2.0037208
-0.82077426 0.37391973 2.0054619
-0.82872981 0.37091231 1.9852098
-0.85600799 0.37650758 2.0112517
-0.86809868 0.37534627 2.0007968
-0.86266255 0.366772 1.950554
-0.89962631 0.37621009 1.9967717
-0.9103108 0.37453127 1.9833608
-0.9270792 0.37536916 1.9833112
-0.94094855 0.37502539 1.9768842
-0.95178771 0.37350306 1.9641401
-0.96856713 0.37432265 1.9637374
-0.99374253 0.37831408 1.9799633
-0.99557573 0.37343249 1.949322
-1.011492 0.37389842 1.9467937
-1.0498612 0.38253203 1.986926
-1.0512639 0.3776429 1.9561441
-1.048534 0.37142569 1.9185027
-1.0634245 0.37153518 1.9138085
-1.095176 0.37745282 1.9391083
-1.1102551 0.37754306 1.9340664
-1.1193937 0.37563747 1.9186658
-1.1313753 0.37472305 1.9083313
-1.143777 0.3739695 1.8987688
-1.1601985 0.37453267 1.8958702
-1.1926863 0.38020331 1.9188596
-1.1936206 0.37579948 1.8904976
-1.2280984 0.38193521 1.9154804
-1.218568 0.37440145 1.871302
-1.2501361 0.37952426 1.8908639
-1.2721984 0.38167459 1.8952974
-1.2728404 0.37742323 1.8676413
-1.2631129 0.37023032 1.8254272
1.4002569 0.38921648 1.9928912
1.3912003 0.39114034 2.0098691
1.3642657 0.388024 2.0006464
1.351771 0.38898972 2.0125117
1.3505604 0.3932642 2.041635
1.3152318 0.38758734 2.0185986
1.3099957 0.39074814 2.0418136
1.2871925 0.38868234 2.0374463
1.2707423 0.38850725 2.042943
1.2383857 0.38340315 2.0221546
1.211455 0.37986964 2.0094893
1.1797566 0.37473005 1.988041
1.203863 0.3874138 2.0619175
1.169781 0.38146052 2.0358834
1.1409568 0.3770842 2.0180869
1.1420192 0.38260072 2.0535719
1.1077925 0.37628368 2.0249701
1.0791402 0.37170893 2.0055728
1.0733019 0.3749741 2.0286984
1.0726321 0.38016555 2.0623622
1.0367101 0.37283194 2.0274582
1.027764 0.3751255 2.0451512
1.0116764 0.37484246 2.048636
1.002875 0.37729189 2.0671122
0.97614533 0.37296769 2.0480931
0.96054518 0.37282622 2.0520751
0.94330353 0.37203273 2.0523477
0.91400844 0.36638165 2.0254598
0.9101547 0.37091047 2.0551815
0.88678646 0.36750525 2.0405452
0.86674607 0.36538568 2.0329554
0.85215372 0.36552876 2.0379467
0.8312155 0.36290637 2.0272954
0.83459806 0.3709999 2.0769417
0.80033696 0.36234975 2.0320735
0.78403145 0.36165619 2.0319846
0.77123415 0.36258525 2.0410061
0.74917138 0.35910943 2.0249412
0.73871589 0.36116973 2.0402389
0.7212162 0.3597998 2.0359428
0.70606023 0.35956642 2.0380342
0.69405633 0.36096242 2.0493653
0.67639095 0.3594107 2.0437572
0.65883911 0.35785183 2.0380044
0.64464575 0.35808781 2.0424635
0.6289829 0.35749951 2.0421073
0.61504942 0.3578895 2.0473056
0.59116399 0.35236663 2.0183089
0.57711881 0.35257977 2.0223024
0.56331086 0.35295245 2.0271497
0.55074388 0.35414264 2.0366673
0.53608119 0.35401317 2.0384731
0.52020884 0.35305554 2.0353947
0.50747311 0.35423276 2.0446465
0.48959088 0.35178125 2.0327151
0.47256681 0.34981671 2.0235195
0.45461378 0.34702048 2.0093765
0.43981138 0.34652668 2.0085776
0.42281193 0.34421143 1.9970545
0.40952355 0.34486198 2.0027933
0.39560857 0.34501246 2.0055416
0.37984779 0.34350485 1.9985026
0.36843029 0.3459599 2.0146332
0.35257334 0.34427589 2.006413
0.33880037 0.34457141 2.0097444
0.3221902 0.34188199 1.9954544
0.30654001 0.34001359 1.9859077
0.29274812 0.34012693 1.9879524
0.27907866 0.34040093 1.9908797
0.26305845 0.337686 1.9761163
0.24896874 0.33728588 1.9749289
0.23178512 0.33240193 1.9472004
0.20835173 0.31738964 1.8595459
0.17040445 0.27680835 1.6206206
0.15178701 0.26409003 1.546169
0.14085162 0.26381397 1.5452039
0.13050985 0.26469609 1.5510415
0.11934324 0.26391357 1.5469788
0.10844377 0.26362503 1.5457888
0.097320095 0.26266772 1.5405869
0.086766168 0.2632015 1.5441679
0.076407462 0.26456228 1.5526028
0.065153643 0.26276138 1.5422498
0.054390259 0.26261815 1.5416719
0.043527354 0.26180592 1.5370781
0.032917902 0.26248553 1.5412819
0.022238523 0.26299486 1.5444278
0.011473755 0.26250264 1.5415846
0.00074966543 0.26217249 1.5396543
-0.0099536115 0.26200446 1.5386368
-0.020839432 0.26432595 1.5523363
-0.0313573 0.26198858 1.538355
-0.042003803 0.26164198 1.5361331
-0.052822016 0.2622886 1.5397521
-0.063571267 0.26243246 1.5403405
-0.074378125 0.26273832 1.5418403
-0.087361716 0.26968661 1.5826507
-0.12497182 0.34258795 2.0140975
-0.14022619 0.34569359 2.0318894
-0.15506403 0.34729803 2.0407176
-0.16719756 0.34308434 2.0150418
-0.18354498 0.34750053 2.0403733
-0.19807664 0.34809163 2.0429993
-0.21174218 0.34718347 2.0366948
-0.2271658 0.34909093 2.0469644
-0.24170849 0.34949934 2.0483046
-0.25482294 0.34791222 2.0377991
-0.2683171 0.34698379 2.0311232
-0.28402534 0.34886813 2.0409672
-0.29846549 0.34908915 2.0409327
-0.31262213 0.3489736 2.0388479
-0.32816026 0.35034296 2.0454316
-0.3441278 0.35203716 2.0538452
-0.35517246 0.34876144 2.0329854
-0.37347937 0.35259447 2.0538063
-0.38445216 0.34947607 2.0337605
-0.39931509 0.34999049 2.0349607
-0.41694617 0.35281172 2.049588
-0.42611861 0.34852606 2.0225582
-0.44432211 0.35166529 2.0388811
-0.46083534 0.3533119 2.046387
-0.48190951 0.35824919 2.0729845
-0.48601544 0.35065305 2.0264659
-0.5024296 0.35211787 2.0326774
-0.51822913 0.35308239 2.0358918
-0.53037536 0.35157296 2.0246656
-0.54137409 0.34940258 2.0095584
-0.56055427 0.35248831 2.0248346
-0.58533013 0.35885009 2.058929
-0.58590609 0.35042715 2.007504
-0.60041296 0.35053924 2.0053413
-0.61233282 0.34917092 1.9945821
-0.63530684 0.35402489 2.0195382
-0.62830788 0.34233201 1.9493693
-0.66089308 0.35224614 2.0031519
-0.68390983 0.35674652 2.0257084
-0.70439339 0.35976529 2.0396433
-0.7140097 0.35722378 2.0217366
-0.73240012 0.35908586 2.0288723
-0.7417689 0.35653847 2.0108349
-0.75196373 0.3544786 1.9955379
-0.77536064 0.35860249 2.015223
-0.79297769 0.35994983 2.0190511
-0.80704188 0.3596648 2.0135636
-0.81290966 0.35580242 1.9878632
-0.83770931 0.3602165 2.008677
-0.85133046 0.35975435 2.0019681
-0.86958259 0.36123168 2.0060444
-0.88516295 0.36156833 2.0036371
-0.89793891 0.36076725 1.9948024
-0.91350067 0.36109313 1.992174
-0.92450935 0.35963753 1.9795755
-0.93834019 0.35930812 1.9731673
-0.95640481 0.36058509 1.9755579
-0.96631551 0.35879579 1.9609452
-0.98530769 0.36038151 1.9648461
-1.0052971 0.36227992 1.9703382
-1.0095978 0.3585515 1.944934
-1.0273393 0.35963491 1.9457949
-1.0400414 0.35894853 1.9369193
-1.0658388 0.36273792 1.952263
-1.0599999 0.35580423 1.9094062
-1.0897865 0.36085451 1.9313278
-1.105776 0.3612625 1.9280437
-1.1227653 0.36198208 1.926339
-1.1307867 0.35982922 1.909169
-1.1467241 0.36021826 1.905543
-1.1283685 0.34996152 1.8452257
-1.1863908 0.36335352 1.9105108
-1.1956291 0.36165825 1.8955586
-1.2153111 0.36312482 1.8972381
-1.2195522 0.35999805 1.8746736
-1.2278693 0.35813469 1.8587499
-1.2573558 0.36241695 1.8748674
-1.2517594 0.35660505 1.838287
-1.2485071 0.35158703 1.805949
1.4018887 0.37375218 1.9971551
1.383307 0.37303379 2.0002978
1.3891121 0.37895152 2.0393126
1.3741676 0.37928131 2.0480614
1.343991 0.37536475 2.0335586
1.3173058 0.37234074 2.0237186
1.295602 0.3706682 2.0211129
1.284497 0.37202412 2.0350561
1.2685943 0.37200695 2.0413704
1.2208657 0.36253864 1.9951853
1.2311472 0.37027457 2.0442984
1.2177536 0.37099859 2.0544639
1.1998261 0.37034205 2.0568435
1.1648071 0.36432227 2.0290203
1.1558501 0.36640155 2.0464983
1.120942 0.36019871 2.0172207
1.1029943 0.3593494 2.0179601
1.1074208 0.36586806 2.0603938
1.0924944 0.36608776 2.067107
1.0625864 0.36122096 2.0447328
1.0415376 0.35926703 2.0387881
1.0290014 0.36023492 2.0494518
1.0181103 0.36181673 2.0635874
0.99122828 0.35767701 2.0447288
0.97099531 0.35584474 2.038996
0.9642058 0.3589592 2.0617566
0.94199151 0.35633904 2.0512578
0.91674656 0.35246783 2.0333376
0.90689564 0.35448501 2.0495384
0.88083929 0.3501288 2.0285037
0.87089437 0.35213712 2.0445123
0.85472053 0.35165307 2.0458798
0.83001715 0.3475799 2.0260754
0.81623876 0.34801686 2.0326388
0.80133533 0.34798142 2.0363486
0.78889447 0.34903416 2.0464065
0.76249307 0.34383214 2.0193934
0.75283605 0.34612483 2.0366244
0.74464971 0.3491987 2.0584655
0.72670776 0.3477298 2.0532665
0.70470476 0.34421614 2.0357761
0.70090491 0.34963354 2.0714469
0.67663026 0.3448509 2.0461669
0.6605801 0.34414074 2.0451055
0.64546466 0.34389636 2.0467482
0.62920666 0.34301776 2.0445025
0.61019313 0.34055945 2.0326672
0.59881216 0.34234506 2.0462742
0.57786322 0.33861318 2.0265641
0.56482476 0.33944425 2.0342731
0.55196494 0.34042919 2.0428534
0.53702188 0.34014773 2.0437098
0.51772797 0.33701843 2.0272291
0.5015204 0.33577704 2.0220878
0.4920623 0.33911428 2.0446732
0.47117901 0.33454141 2.0191264
0.45996681 0.33676401 2.0348208
0.43578151 0.32932577 1.9915975
0.42276356 0.33011273 1.9983906
0.40928108 0.33057866 2.0031648
0.39518496 0.33056447 2.0049417
0.37687871 0.32689741 1.9843053
0.37103239 0.33417118 2.0305476
0.35151684 0.32922292 2.0019062
0.3374604 0.3291887 2.003284
0.32371411 0.32946721 2.0065141
0.3075498 0.32719848 1.9940363
0.29371265 0.32730776 1.9960879
0.27782321 0.3250269 1.9833766
0.26354393 0.32448944 1.9813101
0.25004116 0.32490134 1.9850205
0.23025179 0.31671429 1.935696
0.20254609 0.29594168 1.8086817
0.16760664 0.26114166 1.5949765
0.15127127 0.25244135 1.5420387
0.1407271 0.25281358 1.5450007
0.12965789 0.252226 1.5419887
0.11901244 0.25243112 1.5438212
0.10868964 0.25342932 1.5505055
0.097910941 0.25346744 1.5512102
0.086744055 0.2523855 1.5449414
0.07586012 0.25193721 1.5425388
0.065178216 0.25212273 1.5440059
0.05447967 0.25230435 1.5454007
0.043903194 0.25327945 1.5516564
0.032826055 0.25106063 1.5381014
0.022078173 0.25043276 1.5343406
0.011463551 0.25155556 1.5413649
0.00074994873 0.25155783 1.5414068
-0.0099700075 0.25171566 1.5423623
-0.020624407 0.25091237 1.537322
-0.031389046 0.25154084 1.5410932
-0.041966271 0.25072977 1.5359082
-0.052708004 0.25103122 1.5375588
-0.063635521 0.2519666 1.5430812
-0.074594416 0.25273839 1.5475409
-0.087556168 0.25924578 1.5874103
-0.12495826 0.32855767 2.0154018
-0.13940263 0.32962474 2.0213962
-0.1551965 0.3333956 2.0440238
-0.16726036 0.32919309 2.0173352
-0.18106975 0.3288103 2.0141797
-0.19777289 0.3333602 2.0413952
-0.21141642 0.33248883 2.0350873
-0.22509058 0.33177194 2.0296717
-0.23984784 0.33264193 2.0339713
-0.25382441 0.33239248 2.031307
-0.2691865 0.33388796 2.0393164
-0.28386101 0.33442333 2.0413435
-0.29829291 0.33463535 2.0413122
-0.31244117 0.33452436 2.0392287
-0.32610971 0.33393186 2.0341237
-0.34085605 0.33444631 2.0357456
-0.35597762 0.33527297 2.0392084
-0.36380324 0.32942927 2.0017512
-0.38550305 0.33611631 2.0409496
-0.39946151 0.33581656 2.0373011
-0.41495085 0.33678004 2.0413013
-0.42849553 0.33615357 2.0355208
-0.44302413 0.3363145 2.0344777
-0.45454648 0.33425468 2.019841
-0.46877342 0.33424842 2.0176513
-0.48504922 0.33566037 2.024009
-0.50754815 0.34117469 2.0551736
-0.52204144 0.3411504 2.0526159
-0.52907681 0.33638573 2.0212846
-0.54666585 0.3384054 2.030978
-0.56415385 0.3402603 2.0395737
-0.58071613 0.34147796 2.044224
-0.59242958 0.33985454 2.0316687
-0.61018318 0.34169099 2.0398772
-0.62491685 0.34179008 2.0375462
-0.63759106 0.34078398 2.0285099
-0.64325958 0.33616152 1.9977599
-0.65989876 0.33734867 2.0017591
-0.68132961 0.3408826 2.0196722
-0.69856179 0.34221223 2.0243037
-0.71850497 0.3447884 2.0362513
-0.71068788 0.33420694 1.9699093
-0.73795772 0.34021699 2.0020974
-0.7598325 0.34355611 2.0182734
-0.77140701 0.34219986 2.0065575
-0.79397172 0.34567878 2.0233104
-0.79710883 0.3407267 1.9902788
-0.81616217 0.34263346 1.9975785
-0.83686858 0.34515503 2.0083611
-0.84011286 0.34051189 1.9770815
-0.86169314 0.34333202 1.9894165
-0.89419031 0.35033524 2.0259783
-0.90026361 0.34692585 2.0017426
-0.91299975 0.34615269 1.992808
-0.92358446 0.34460136 1.9793097
-0.93234569 0.34242889 1.9621851
-0.95545352 0.34551135 1.9753174
-0.96925229 0.34518498 1.9686922
-0.98564899 0.34577978 1.9672784
-1.0002936 0.34575149 1.9622039
-1.0230578 0.34848979 1.9728345
-1.0286118 0.34537119 1.9499754
-1.039938 0.3442513 1.938473
-1.0511588 0.3431282 1.9269063
-1.0622736 0.34200177 1.9152758
-1.093542 0.34730652 1.9398068
-1.0949285 0.34310588 1.9107293
-1.1172245 0.34548181 1.918521
-1.1296805 0.34479269 1.9090489
-1.1506687 0.346692 1.9139251
-1.1507858 0.34233439 1.8839442
-1.1603875 0.34087205 1.8700463
-1.1729981 0.3403188 1.8611337
-1.2009066 0.34416321 1.8763355
-1.2044518 0.34101692 1.8530228
-1.2288456 0.34377813 1.8620068
-1.2517841 0.34607199 1.8682705
-1.2383839 0.33838308 1.8202202
-1.2550972 0.33900481 1.817307
1.3972826 0.35665858 1.99238
1.3848991 0.35755756 2.0044594
1.319802 0.34470955 1.9385668
1.3581922 0.35890639 2.0259194
1.3439046 0.35935506 2.035275
1.3333112 0.36081427 2.0503492
1.265788 0.34671521 1.9760301
1.2597351 0.3493135 1.9973212
1.2695396 0.35642883 2.0447319
1.2330775 0.35057023 2.0170934
1.2016327 0.34600624 1.9966933
1.1740464 0.34244934 1.9819251
1.1809083 0.34897888 2.025954
1.157855 0.34672421 2.018589
1.1528517 0.34988672 2.0429337
1.1380228 0.35011297 2.0499768
1.1212714 0.34974581 2.0534327
1.0873173 0.34392709 2.0244586
1.0777042 0.34575129 2.040669
1.0670168 0.34727874 2.0550823
1.0481409 0.34614676 2.0535631
1.0266979 0.34412065 2.0465684
0.99975723 0.34016261 2.0278265
0.99284279 0.34300151 2.0498123
0.96498299 0.33858001 2.0279787
0.95495576 0.34037429 2.0435388
0.94722319 0.34305751 2.064456
0.92552769 0.34068879 2.0546675
0.90322369 0.33801353 2.0428669
0.89247429 0.33964491 2.0571961
0.87041509 0.33695427 2.0450571
0.84251565 0.33186883 2.0180962
0.83141088 0.33333549 2.031158
0.81651181 0.33330649 2.0349758
0.80160373 0.3332727 2.0386841
0.78633428 0.33308458 2.0413601
0.7672565 0.33124501 2.0337374
0.75308943 0.33149508 2.0389459
0.74423283 0.33413935 2.0589454
0.72531563 0.33228245 2.0509326
0.71264732 0.33327055 2.0605249
0.69768226 0.3332037 2.0634792
0.68178934 0.3326813 2.0635076
0.65839201 0.3283926 2.0398781
0.64568466 0.32936221 2.0490506
0.62999868 0.32882223 2.0486898
0.60560662 0.32360443 2.0188394
0.5924046 0.32425755 2.0257797
0.58021361 0.32551047 2.0364394
0.5689556 0.3273643 2.0508399
0.54959661 0.324532 2.0355818
0.53222179 0.32275015 2.0268531
0.51863533 0.3232305 2.032357
0.50051397 0.32083136 2.0195334
0.4883323 0.32221052 2.0305951
0.47334892 0.32176852 2.0300295
0.45904627 0.32177618 2.032249
0.43802983 0.31692669 2.003458
0.42372352 0.31677106 2.0044661
0.40981737 0.3169142 2.0073109
0.39494494 0.31629366 2.0052106
0.38067013 0.3161236 2.0059156
0.36816731 0.31746849 2.0162466
0.35248902 0.31607318 2.0089741
0.33855706 0.31619298 2.0113318
0.32429752 0.31600386 2.0116427
0.3079581 0.31367916 1.998176
0.29424539 0.31393632 2.0012081
0.27941802 0.31297055 1.9963156
0.26299199 0.31001896 1.978578
0.25025314 0.3113277 1.988171
0.23160751 0.305011 1.948608
0.20000294 0.27978015 1.7870835
0.16408862 0.24477193 1.5623156
0.15142116 0.2419295 1.5447084
0.14095521 0.24243872 1.5486575
0.12995043 0.2420287 1.5466278
0.11943118 0.24253058 1.5504339
0.10797668 0.24104431 1.5413529
0.097083919 0.24062261 1.539094
0.087049529 0.24248746 1.5515608
0.07593561 0.24144736 1.5452083
0.064995617 0.24070871 1.5407524
0.054258253 0.2405771 1.5401716
0.043642543 0.24105278 1.5434692
0.032817096 0.24030249 1.53879
0.022184655 0.24092335 1.5429301
0.011431349 0.24016543 1.5381037
0.00074831775 0.24032035 1.5391335
-0.0099420212 0.24031873 1.5391022
-0.020710588 0.24122995 1.5449269
-0.031380512 0.2407624 1.5417848
-0.042061597 0.24059661 1.5405464
-0.052794103 0.24073254 1.5412105
-0.063819729 0.24193381 1.5487136
-0.074527264 0.24175656 1.5472543
-0.088342004 0.25043231 1.602957
-0.12476082 0.31406757 2.0136504
-0.13925068 0.31524226 2.0206394
-0.15473302 0.31824321 2.0393517
-0.16861649 0.31772831 2.0352931
-0.18350448 0.31903952 2.042954
-0.19765498 0.31897232 2.0416539
-0.20906146 0.31478247 2.0137136
-0.22495528 0.31745103 2.0299225
-0.23981899 0.31843659 2.0352111
-0.25634629 0.32139793 2.0531435
-0.27056563 0.32130563 2.0513456
-0.28436738 0.32075161 2.046514
-0.29924974 0.3214111 2.0494161
-0.31477955 0.32267421 2.0561202
-0.3290191 0.32256216 2.0539236
-0.34211025 0.32138067 2.0448048
-0.35576645 0.32080346 2.0395005
-0.37076867 0.32143772 2.0418878
-0.38491109 0.32130715 2.0393093
-0.39922485 0.32132384 2.0376046
-0.41490129 0.32239825 2.0425825
-0.43005982 0.32301188 2.0445399
-0.44276184 0.32180044 2.0347927
-0.45879582 0.32301068 2.0404043
-0.47226575 0.32239705 2.0343339
-0.48636073 0.32223374 2.0310612
-0.49996391 0.32176325 2.0257716
-0.51279336 0.32083485 2.0175166
-0.5252859 0.31975165 2.0082252
-0.54659963 0.32395363 2.0322866
-0.55990237 0.32331383 2.0256438
-0.57796681 0.32538682 2.0360422
-0.58933723 0.32368198 2.0225468
-0.59914571 0.32122102 2.0042541
-0.61333543 0.32116893 2.001056
-0.61633241 0.31539163 1.9618928
-0.62964666 0.31503356 1.9566889
-0.66841662 0.32715017 2.0293906
-0.67716938 0.32437184 2.0088296
-0.69367635 0.32534623 2.0116303
-0.70209324 0.32256404 1.9909693
-0.72990775 0.32862666 2.0252137
-0.73039979 0.3223913 1.9830202
-0.75282592 0.32589117 2.0011263
-0.76743942 0.32594067 1.9977666
-0.79172772 0.33002114 2.0191803
-0.80321449 0.32871407 2.0072703
-0.81606376 0.32800135 1.9989635
-0.83412713 0.32937256 2.0033689
-0.85383028 0.33133277 2.0112648
-0.86549217 0.33015895 1.9999021
-0.87505978 0.32823876 1.9839445
-0.89291072 0.32943764 1.9869162
-0.91207618 0.33107501 1.9924363
-0.91807801 0.32795799 1.9690639
-0.93644822 0.32928762 1.9725431
-0.95149422 0.32942542 1.9687276
-0.96436822 0.32881847 1.9603535
-0.97849661 0.32865092 1.9545515
-0.99348795 0.32877395 1.9504123
-1.0039515 0.32741672 1.9373618
-1.0239118 0.32915115 1.9426652
-1.0388905 0.32925785 1.9381776
-1.0548016 0.32965302 1.9353142
-1.0664394 0.32872012 1.9245213
-1.0905285 0.33159858 1.9361094
-1.1055528 0.33168066 1.9311124
-1.0997952 0.32560781 1.8900149
-1.1185473 0.32685491 1.8917555
-1.1459901 0.33057696 1.907773
-1.1603935 0.33049098 1.9014952
-1.1799511 0.3318567 1.9035362
-1.1744412 0.3262257 1.8651171
-1.1716369 0.32147443 1.8318795
-1.2118238 0.32849157 1.8661474
-1.1946046 0.3199656 1.8113396
-1.2040478 0.31869772 1.7980775
-1.1984341 0.31352037 1.7626181
-1.2169722 0.31470767 1.7632571
1.4141382 0.34490395 2.0183787
1.3735975 0.33886388 1.9897226
1.3745264 0.34303275 2.021354
1.3630199 0.34415981 2.0349481
1.3286076 0.33946112 2.0136809
1.3181778 0.34085065 2.028656
1.2980505 0.33973598 2.0285351
1.2858685 0.3406989 2.0408266
1.2657942 0.33956864 2.0403972
1.2529788 0.34038177 2.0516427
1.2304318 0.33853823 2.0466514
1.1999964 0.33444825 2.0277843
1.1832675 0.33412108 2.0317409
1.1675254 0.33406752 2.0372832
1.1522518 0.33414841 2.0435681
1.1312222 0.33253944 2.0393298
1.1202135 0.33387253 2.0531809
1.0918518 0.32999831 2.0346434
1.0794246 0.33089831 2.0456312
1.0505862 0.32672065 2.0248566
1.0435555 0.32930183 2.0461791
1.0177634 0.32595143 2.030273
0.99877012 0.32470992 2.0274487
0.99230093 0.32756454 2.0503361
0.97880793 0.32815352 2.0589046
0.94485343 0.32179251 2.0233746
0.93522418 0.32364458 2.0397329
0.91815078 0.32293895 2.0397851
0.90311384 0.32293805 2.0442312
0.89080262 0.32392827 2.0549309
0.86106968 0.31850836 2.0245216
0.84505647 0.31806234 2.0258107
0.82572037 0.31632736 2.0187209
0.8156755 0.31815347 2.0344522
0.80222028 0.31869233 2.0418406
0.78764647 0.31879875 2.0463665
0.77305216 0.31890076 2.0507882
0.7472046 0.31427369 2.0244389
0.74514103 0.3196651 2.0630467
0.72194695 0.31602657 2.0428848
0.7125569 0.31840494 2.0618198
0.69696462 0.31805399 2.0628941
0.6736899 0.31410596 2.0403421
0.65739959 0.31331146 2.0383048
0.64530486 0.31452581 2.0493641
0.62731773 0.31285784 2.0414233
0.60721582 0.31003088 2.0257454
0.59370154 0.31051159 2.0317485
0.57932818 0.31055582 2.0348058
0.56546783 0.31088433 2.0396702
0.55156988 0.31120887 2.044441
0.5328967 0.30878401 2.0309243
0.51637959 0.30750859 2.0249233
0.50469518 0.30912045 2.0380108
0.48734716 0.30725619 2.0279343
0.47083172 0.30581996 2.0206099
0.4572531 0.30626124 2.0257075
0.44153106 0.30524909 2.0210452
0.42366275 0.30263644 2.0056119
0.40779558 0.30132267 1.9987592
0.39488837 0.30218038 2.0063503
0.38207966 0.30317959 2.0148318
0.36652899 0.30199632 2.0086298
0.35057324 0.30037156 1.9993862
0.33590281 0.29975876 1.996852
0.322065 0.29986814 1.9990965
0.30776408 0.29953662 1.9983131
0.29191914 0.29759964 1.9866594
0.27801737 0.29754931 1.9876243
0.26437479 0.29778564 1.990455
0.24837841 0.29525012 1.9745408
0.23133971 0.2911059 1.9476953
0.19374792 0.25897363 1.7319189
0.16434965 0.23425557 1.5659167
0.15109131 0.23066397 1.5423834
0.139939 0.22998396 1.5384512
0.12974943 0.23090458 1.5452847
0.11917173 0.23123845 1.5481062
0.10801406 0.23040143 1.5429609
0.097055919 0.22985244 1.5397118
0.086531341 0.23032142 1.5433009
0.075481474 0.2293271 1.5369377
0.065100692 0.23037285 1.5443355
0.054346014 0.23024711 1.5437541
0.043464035 0.22938766 1.5381551
0.032724153 0.22896256 1.535448
0.022093857 0.22926392 1.5376132
0.01136258 0.22810137 1.5298134
0.00074810203 0.22956377 1.5397476
-0.0099454764 0.22970821 1.5407052
-0.02062594 0.22955701 1.5396118
-0.031331666 0.2296942 1.5404238
-0.042049494 0.22982773 1.5411624
-0.052644886 0.22937362 1.537873
-0.063277617 0.22920795 1.5364891
-0.074364737 0.23049849 1.5449146
-0.090851352 0.24608918 1.6500673
-0.12474337 0.30005464 2.0147583
-0.1400409 0.30292839 2.0335996
-0.15426686 0.30317044 2.0345693
-0.1681076 0.30267826 2.0305107
-0.18321665 0.30436918 2.0411408
-0.19725034 0.30415916 2.0388577
-0.21217321 0.30525658 2.045337
-0.22600539 0.30474555 2.0408909
-0.24093495 0.30568716 2.0461795
-0.25290805 0.30298188 2.0268145
-0.2702733 0.30668095 2.0505464
-0.28405944 0.30615139 2.0457139
-0.29906836 0.30692729 2.0496025
-0.31206474 0.30566129 2.0396883
-0.32633659 0.30570039 2.0384879
-0.34174064 0.30675265 2.0440216
-0.3560558 0.30678216 2.0426161
-0.37036812 0.3068071 2.0411119
-0.38449502 0.30668229 2.0385363
-0.4006806 0.30814964 2.0465477
-0.41504094 0.30816039 2.0447347
-0.42939597 0.30816665 2.0428219
-0.44458005 0.30874816 2.0446784
-0.45830324 0.30831051 2.0396638
-0.47020343 0.3067103 2.0268443
-0.48583686 0.30756786 2.0303247
-0.50060058 0.30784142 2.0298424
-0.51780045 0.30955625 2.0388491
-0.53390688 0.31054217 2.0429265
-0.54831034 0.31051165 2.0401871
-0.56217974 0.31018808 2.0354383
-0.57869327 0.31130311 2.0401216
-0.59090441 0.31010574 2.0294638
-0.60609204 0.31049028 2.0291717
-0.61842811 0.30943018 2.0192993
-0.62712801 0.30664033 1.998016
-0.6361683 0.30413747 1.9785948
-0.66832656 0.3125551 2.0306385
-0.67989916 0.31119189 2.0185091
-0.69326061 0.31068724 2.0119352
-0.71146667 0.31232998 2.0192866
-0.72647923 0.31253305 2.017163
-0.73912299 0.3117291 2.0084209
-0.7586028 0.31378374 2.0181465
-0.77402753 0.31411511 2.0165997
-0.78301442 0.31187004 1.9983312
-0.7990911 0.31247914 1.9984349
-0.81001097 0.31108594 1.985567
-0.83401579 0.31467873 2.0046642
-0.84795797 0.31441635 1.9988922
-0.84703177 0.30874333 1.9584577
-0.87692493 0.31430584 1.989777
-0.88876301 0.31332073 1.979184
-0.902547 0.31304234 1.9730289
-0.89843243 0.30666342 1.9281396
-0.93590254 0.31445625 1.9729671
-0.94794649 0.31359759 1.9629098
-0.9677121 0.31528074 1.9687953
-0.98364854 0.31568465 1.9665194
-0.99692708 0.31523624 1.9588133
-1.0133178 0.31577063 1.9571809
-1.0334066 0.31742564 1.9624337
-1.0471181 0.31710276 1.9552612
-1.0570196 0.31565109 1.9410229
-1.0610588 0.31251261 1.9163263
-1.0773605 0.3130219 1.9141425
-1.0868464 0.31156367 1.8997681
-1.106577 0.31304199 1.9033655
-1.1239114 0.31381285 1.9025078
-1.1453438 0.31569341 1.908306
-1.1474413 0.31226459 1.8817006
-1.1559666 0.31064892 1.8661255
-1.1779649 0.31264913 1.8723655
-1.1889775 0.31172028 1.8608227
-1.1988181 0.31051028 1.8475512
-1.1928251 0.30527684 1.8101898
-1.1858251 0.29991198 1.7721759
-1.1949524 0.29870337 1.7589916
-1.2168109 0.30066839 1.7645714
1.3913908 0.32355726 1.9873339
1.4065008 0.33082739 2.0394609
1.3577737 0.32307667 1.9981965
1.3579581 0.32691884 2.0290194
1.3566952 0.33049983 2.0582798
1.3379122 0.32984769 2.0609562
1.2830493 0.32017612 2.0065615
1.2652549 0.31963021 2.0095067
1.268779 0.32452354 2.0469127
1.2430929 0.32197481 2.0369871
1.212536 0.31808302 2.0182917
1.2048771 0.32017499 2.037735
1.1766888 0.31679493 2.0219808
1.1683704 0.31874552 2.0403988
1.1530858 0.31882277 2.0466866
1.1291776 0.31648502 2.0372305
1.1082915 0.3149412 2.0327702
1.0949763 0.31553563 2.0421152
1.0815897 0.31612617 2.0513716
1.0617855 0.31483087 2.0482028
1.0349267 0.31137511 2.0307105
1.0277762 0.31383419 2.051986
1.0147308 0.31454054 2.0616832
0.99045771 0.31173468 2.0480714
0.97149831 0.31053984 2.0449779
0.96595812 0.31366456 2.0704906
0.93755865 0.3093476 2.0464156
0.91721809 0.30759177 2.0392387
0.90259302 0.30772614 2.0445828
0.88559502 0.3070423 2.0443611
0.87519348 0.30866137 2.0595202
0.84872258 0.30457056 2.0361817
0.84012347 0.30686164 2.0557265
0.81263041 0.30220944 2.0282981
0.80174655 0.30367619 2.0421288
0.7808218 0.30132341 2.0299907
0.76600426 0.30128232 2.0334363
0.74709398 0.29959831 2.0256114
0.74202973 0.30351049 2.0558593
0.72446346 0.30236426 2.051542
0.71052879 0.30271757 2.0573893
0.68679374 0.29882172 2.0340254
0.6720494 0.29875347 2.036793
0.64704144 0.29401842 2.0073771
0.64609665 0.30025101 2.0533564
0.62953514 0.29934713 2.0501451
0.60712367 0.29555252 2.0268662
0.59499061 0.29669857 2.0376272
0.58381695 0.29839212 2.0521305
0.56932241 0.29843166 2.0551157
0.54662335 0.2940596 2.0273819
0.52807629 0.29174548 2.0138137
0.51217192 0.29080352 2.009691
0.5046193 0.29468504 2.0391111
0.48910975 0.29401141 2.0367281
0.474327 0.29374713 2.0371244
0.45804837 0.29251119 2.0306494
0.43957531 0.28974912 2.0134015
0.42765704 0.29126763 2.0260477
0.41165835 0.29001597 2.0192115
0.39463621 0.28792843 2.0064211
0.38201997 0.28901997 2.0158799
0.36735296 0.2885842 2.0145411
0.35000834 0.28592625 1.997486
0.33552298 0.28548038 1.9959196
0.3218573 0.28572339 1.9991397
0.30771485 0.28554606 1.9993306
0.29272839 0.28453147 1.993543
0.27579525 0.28142938 1.9729317
0.26084039 0.28012648 1.9649484
0.24539548 0.27812397 1.9519411
0.22724599 0.27264199 1.914229
0.19043055 0.2426894 1.7031325
0.16338073 0.22203305 1.5576279
0.15123667 0.22013701 1.5449064
0.14051777 0.22018398 1.5459015
0.1297103 0.22008845 1.5458366
0.1183838 0.21901543 1.5387856
0.10798138 0.21960866 1.5435086
0.09702643 0.21908508 1.5402553
0.086395457 0.21925397 1.5418695
0.075698763 0.21928021 1.5424225
0.064957216 0.21916379 1.5419129
0.054398537 0.21974011 1.5462781
0.043423124 0.21850267 1.537704
0.0327559 0.21851502 1.5379637
0.022129353 0.21894176 1.5411212
0.011388186 0.21797225 1.5343043
0.00074930274 0.21922773 1.543258
-0.0099487836 0.21908696 1.5422363
-0.02064592 0.21908203 1.5421319
-0.031322148 0.21893428 1.5409645
-0.041876394 0.21822606 1.5357648
-0.052796446 0.21932477 1.5433604
-0.063621163 0.21972366 1.5459321
-0.075096078 0.22192894 1.5612879
-0.097296014 0.25127649 1.7693743
-0.12363151 0.28353569 1.9979781
-0.13840027 0.28544191 2.0109191
-0.15238705 0.28553402 2.0109148
-0.16840628 0.28909981 2.0354886
-0.18239895 0.28890416 2.0333056
-0.194856 0.28647891 2.0152552
-0.20889825 0.28655303 2.0148635
-0.22586349 0.29037571 2.0409534
-0.24078433 0.29127368 2.0462496
-0.25347754 0.28952709 2.0327652
-0.27074692 0.29291591 2.0555365
-0.28388208 0.29171628 2.0457923
-0.29774743 0.29134583 2.041847
-0.31216645 0.2915262 2.0417256
-0.32271555 0.28823444 2.0170517
-0.33699116 0.288407 2.0167561
-0.3546527 0.29134727 2.0358782
-0.3701371 0.29234126 2.0412076
-0.38753295 0.29471505 2.0561562
-0.39873302 0.29237568 2.0379078
-0.41185156 0.29155621 2.0302839
-0.42832106 0.29308441 2.0390594
-0.44096431 0.2919803 2.0293107
-0.45586455 0.29239297 2.0301197
-0.47346252 0.29445833 2.0424027
-0.48827863 0.29472291 2.0420129
-0.49911243 0.29263735 2.0251615
-0.51530337 0.29372156 2.0303493
-0.53109372 0.29452476 2.0334938
-0.54848343 0.29614925 2.0422595
-0.56392705 0.29666647 2.0432405
-0.57672924 0.29580304 2.0345716
-0.5913645 0.29589903 2.032486
-0.60628176 0.29612812 2.0312452
-0.61977279 0.29566616 2.025157
-0.62791222 0.2927303 2.0019557
-0.65472001 0.29843464 2.0381956
-0.66515309 0.29658908 2.0223691
-0.68262058 0.297892 2.0281053
-0.6982798 0.29836789 2.0280733
-0.70515114 0.29514608 2.002672
-0.7290355 0.29903165 2.0257838
-0.7413882 0.29812747 2.0160904
-0.75572157 0.29803929 2.0118923
-0.77074075 0.29821977 2.009444
-0.78612459 0.29853204 2.0078073
-0.79677939 0.29706982 1.9940816
-0.81657404 0.29900655 2.0032644
-0.82860261 0.29808158 1.9930357
-0.84322232 0.29810455 1.9891285
-0.85353684 0.2966305 1.9750975
-0.87957203 0.30057794 1.9973329
-0.88016689 0.29584476 1.9613745
-0.89258957 0.29517579 1.9525725
-0.92903572 0.30234629 1.9958619
-0.93449962 0.29936734 1.9714936
-0.95165706 0.30016845 1.9721673
-0.9584555 0.29772747 1.9513193
-0.95400989 0.29191881 1.9082781
-0.98606968 0.29728702 1.938818
-1.0063848 0.29901007 1.9452015
-1.0066617 0.29481527 1.9127444
-1.0242006 0.29572299 1.9136353
-1.0394512 0.2959539 1.9100133
-1.0589969 0.29738462 1.9140892
-1.0743084 0.29760367 1.9101957
-1.0690901 0.29220566 1.8699729
-1.0811836 0.29161915 1.8608264
-1.0987144 0.29249543 1.8610086
-1.127452 0.29629439 1.8797747
-1.1600956 0.30101055 1.9041674
-1.1537285 0.2956132 1.8640012
-1.1683631 0.29566392 1.8584981
-1.1691942 0.29226294 1.8311082
-1.1766729 0.29058561 1.8146343
-1.196987 0.29208028 1.8180646
-1.1982408 0.28894353 1.7923816
-1.1925567 0.28422627 1.7569003
-1.2071264 0.2843892 1.7518721
1.4183962 0.31373182 2.0278263
1.4153193 0.3166467 2.0539806
1.3980893 0.31642598 2.0596194
1.346838 0.30840966 2.0138698
1.3125819 0.3041406 1.9924225
1.3238051 0.31043372 2.0406632
1.3009555 0.30879271 2.0363708
1.2761322 0.30663696 2.0284936
1.266552 0.30813581 2.0448775
1.2460233 0.30697528 2.0434029
1.2199963 0.30441311 2.0323672
1.2202799 0.30843461 2.0655637
1.1795092 0.30204865 2.0284119
1.1701783 0.30365092 2.0451338
1.146646 0.30156162 2.0367119
1.1256818 0.30009967 2.0324078
1.1095554 0.29990488 2.0366352
1.0985523 0.30110881 2.0503678
1.0805231 0.30039382 2.0508611
1.0707083 0.30197486 2.0670784
1.0450678 0.29907334 2.0522761
1.0196893 0.29616147 2.0372188
1.0071925 0.29695946 2.0477538
0.99031478 0.29647049 2.0492702
0.96924269 0.294691 2.0416791
0.95665818 0.2954765 2.0518949
0.93167603 0.29239652 2.0349474
0.91667551 0.29239956 2.0394895
0.90524107 0.29355916 2.0520957
0.8815459 0.29071468 2.036396
0.8731367 0.29290003 2.0561049
0.85540944 0.2919814 2.0537994
0.8373878 0.29092774 2.0504284
0.82019031 0.29012728 2.0487499
0.80773717 0.29100657 2.0589435
0.78175676 0.28695354 2.0338581
0.7700457 0.2880832 2.0456672
0.7578721 0.28908071 2.0564802
0.7425819 0.28890547 2.0588205
0.71353281 0.28326112 2.0217459
0.70527595 0.28580773 2.0434649
0.68636692 0.28405416 2.0341401
0.66299719 0.28033832 2.0105186
0.65689349 0.28392029 2.0395591
0.64451629 0.28489175 2.0496809
