# .PCD v0.7 - Point Cloud Data file format
VERSION 0.7
FIELDS x y z
SIZE 4 4 4
TYPE F F F
COUNT 1 1 1
WIDTH 1433
HEIGHT 1
VIEWPOINT 0 0 0 1 0 0 0
POINTS 1433
DATA ascii
-0.66925019 -0.46291342 1.0941905
-0.67777872 -0.46271858 1.0903288
-0.69176549 -0.46620709 1.0952001
-0.69981271 -0.46565521 1.0903796
-0.70171148 -0.461077 1.0759926
-0.70807654 -0.45951042 1.0687373
-0.72062576 -0.46194628 1.0708748
-0.73218912 -0.46369916 1.07133
-0.74645847 -0.46710351 1.0755712
-0.75544626 -0.4671616 1.0719256
-0.76441914 -0.46720922 1.0682119
-0.75744754 -0.45762271 1.0421895
0.78054196 -0.47433409 1.0535234
0.78372824 -0.48174039 1.0741742
0.78447658 -0.48780277 1.0918529
0.80331266 -0.50538725 1.1358324
0.81302255 -0.51758021 1.1677233
0.78909981 -0.508398 1.1507312
0.78163165 -0.50972253 1.1577307
0.76894563 -0.507635 1.1568246
0.75325388 -0.50348628 1.1510644
0.74575442 -0.50477773 1.1578392
0.73670095 -0.50503689 1.1621794
0.73008716 -0.50699705 1.1704543
0.72241867 -0.50826669 1.1770898
0.71132618 -0.50712901 1.1780304
0.69883382 -0.50494915 1.1764467
0.69015652 -0.50550395 1.1812581
0.67959428 -0.50467438 1.1827421
0.67316389 -0.50693309 1.1915189
0.65310276 -0.4988448 1.1755742
0.660923 -0.5121268 1.2106353
0.64278686 -0.5053907 1.1977669
0.63614094 -0.50762278 1.2063478
0.62641495 -0.50742739 1.2090498
0.61710644 -0.50756931 1.2125162
0.61193389 -0.51117063 1.2243248
0.59967059 -0.50886905 1.2217754
0.57861388 -0.49891114 1.2004904
0.5757553 -0.50457543 1.2172031
0.56604582 -0.5043245 1.2194479
0.55056924 -0.49883974 1.2087963
0.54360086 -0.50100768 1.2168574
0.53319794 -0.5000307 1.2171414
0.52501673 -0.50113958 1.2225183
0.51463002 -0.5001452 1.2226515
0.50568449 -0.50054061 1.226173
0.49879962 -0.50302911 1.2348518
0.49113628 -0.50481302 1.2417516
0.4716928 -0.49432144 1.2179904
0.45852774 -0.49012196 1.2098109
0.45452046 -0.49573946 1.2261302
0.44809476 -0.49889806 1.2362835
0.43907461 -0.49924096 1.2393397
0.43094411 -0.50063223 1.24499
0.42068169 -0.49955371 1.2443753
0.41161257 -0.49987534 1.2472403
0.39770347 -0.49419758 1.2348818
0.39314464 -0.50014502 1.251887
0.38403025 -0.50044554 1.2545602
0.37516373 -0.50109214 1.2580676
0.36239925 -0.49643224 1.2480266
0.35281771 -0.4960022 1.2486849
0.34545192 -0.49874797 1.2573977
0.33487985 -0.49688849 1.2543137
0.32669157 -0.49856091 1.2602071
0.31730962 -0.49845639 1.2615122
0.30639395 -0.49586344 1.2563872
0.29939425 -0.49964389 1.2675654
0.28730813 -0.49490604 1.2568213
0.27738681 -0.49370602 1.2551086
0.2688559 -0.49498343 1.2597251
0.25915626 -0.49412337 1.2587904
0.25307965 -0.50036287 1.2761307
0.24174681 -0.4962903 1.266813
0.23306015 -0.49754205 1.2711985
0.22672395 -0.50412405 1.2893391
0.21691906 -0.50322968 1.288096
0.20743798 -0.50303942 1.2886282
0.20062484 -0.50960803 1.3066477
0.18862233 -0.50299281 1.2904191
0.18143378 -0.50919443 1.3074166
0.1719664 -0.50933272 1.3086275
0.16237776 -0.50910711 1.3088458
0.153759 -0.51208347 1.3173509
0.14331989 -0.50899011 1.3100121
0.13421336 -0.51052588 1.3146794
0.12469919 -0.51062739 1.3155661
0.11509905 -0.51036465 1.3154569
0.10609785 -0.51295006 1.322731
0.095453784 -0.50731742 1.3085179
0.086228877 -0.50881702 1.3128676
0.076516114 -0.50745267 1.3096955
0.066475853 -0.50322318 1.2989925
0.056592729 -0.49898568 1.288218
0.047510117 -0.50152695 1.2951072
0.038141843 -0.50156069 1.2954004
0.028648935 -0.49944344 1.2900268
0.019276308 -0.49839056 1.2873894
0.0099143079 -0.49590117 1.2809517
0.00064252154 -0.49126062 1.2688458
-0.0086419769 -0.49733126 1.2846966
-0.017921153 -0.49696356 1.2836716
-0.027225308 -0.49730304 1.2844509
-0.036462907 -0.4965634 1.2823653
-0.045573503 -0.49474505 1.2774168
-0.054931968 -0.4957771 1.2798727
-0.063958071 -0.49394444 1.2748003
-0.073655456 -0.49710461 1.282724
-0.078882046 -0.4727622 1.2187998
-0.087570786 -0.47198269 1.2163661
-0.09688516 -0.47440922 1.222255
-0.10183326 -0.45684123 1.1759547
-0.10914209 -0.45176208 1.1622055
-0.11551702 -0.44382417 1.1409787
-0.12477857 -0.44729725 1.1494482
-0.13342449 -0.44826603 1.1513495
-0.14300665 -0.45208001 1.1606088
-0.14914612 -0.4451924 1.1419936
-0.15943854 -0.45077392 1.1557564
-0.16754809 -0.44993344 1.1527852
-0.17576315 -0.44944301 1.1506841
-0.18789612 -0.45855901 1.1734492
-0.19380762 -0.4523586 1.156458
-0.20314513 -0.45433873 1.1606261
-0.20990221 -0.45062035 1.1500059
-0.21927455 -0.45258671 1.1540498
-0.22603394 -0.44921413 1.1442599
-0.23544614 -0.45116636 1.148178
-0.24262358 -0.44884938 1.1410446
-0.24971183 -0.44652775 1.1338698
-0.25814602 -0.44668525 1.1330396
-0.26827481 -0.44967327 1.1394361
-0.27698287 -0.4501707 1.1393843
-0.28458199 -0.44888973 1.1347305
-0.29282323 -0.44866583 1.1327473
-0.3017647 -0.44949749 1.1334211
-0.31268489 -0.45315176 1.1412514
-0.32022628 -0.45184577 1.1363702
-0.32797214 -0.45088795 1.1323414
-0.33804947 -0.45310307 1.1363418
-0.34442362 -0.45036769 1.1277174
-0.35207468 -0.44939268 1.1235317
-0.36251274 -0.4519375 1.1282175
-0.37274858 -0.45412025 1.1319247
-0.38217133 -0.45523724 1.1328826
-0.38951525 -0.45388317 1.1275645
-0.4001956 -0.45639181 1.1319246
-0.4106459 -0.45853889 1.1353115
-0.41603127 -0.45505807 1.1245369
-0.4225941 -0.45297882 1.117254
-0.43341303 -0.45545384 1.1213129
-0.44771361 -0.46142176 1.1340047
-0.45079571 -0.45582056 1.1178319
-0.45790005 -0.45441884 1.1120892
-0.47212213 -0.46000314 1.1236143
-0.4788712 -0.45823681 1.1168745
-0.48332232 -0.4543722 1.1049346
-0.4914023 -0.45399362 1.1015679
-0.50368065 -0.45744079 1.1075526
-0.51451367 -0.45948219 1.1100117
-0.52065921 -0.4573392 1.1021775
-0.52953494 -0.45762485 1.1002439
-0.54494286 -0.46345681 1.1117513
-0.55391783 -0.46372092 1.1096363
-0.5586887 -0.46051162 1.0990671
-0.57527804 -0.46699348 1.1118857
-0.582569 -0.46584624 1.1062104
-0.58673984 -0.46227461 1.0946823
-0.59566563 -0.46249855 1.0922449
-0.61765331 -0.47271279 1.1136208
-0.61305112 -0.46257567 1.0863444
-0.62196004 -0.46277356 1.0837047
-0.63180071 -0.46364969 1.0826244
-0.63691711 -0.4610821 1.0733558
-0.64865476 -0.46331248 1.0753747
-0.65656817 -0.46278849 1.0708532
-0.66248357 -0.46088803 1.0630744
-0.6787712 -0.46615979 1.0720102
-0.6906929 -0.46833757 1.0736303
-0.69860065 -0.46777311 1.0688183
-0.71059418 -0.46992457 1.0702459
-0.71431464 -0.46661928 1.0590324
-0.71738285 -0.46297273 1.047044
-0.72350574 -0.4613609 1.0397236
-0.73493516 -0.46313116 1.0400945
-0.74532056 -0.46420988 1.038825
-0.77987266 -0.48014244 1.0711093
0.78320897 -0.48484787 1.0547634
0.77373189 -0.48448214 1.0578645
0.78544819 -0.49753261 1.0907454
0.79941249 -0.51233065 1.1276891
0.77401638 -0.50195515 1.1084574
0.76579666 -0.50260299 1.1137862
0.7789005 -0.51743209 1.1510488
0.75491333 -0.50768316 1.1328982
0.75059611 -0.51108402 1.1443963
0.74363172 -0.51274562 1.1519388
0.73510283 -0.51335728 1.1570606
0.72703117 -0.51430827 1.1629214
0.70383471 -0.50444412 1.1438936
0.70017761 -0.50850779 1.1567858
0.68735135 -0.50593215 1.1543369
0.68022442 -0.50753844 1.1615027
0.66979045 -0.50668752 1.1629283
0.65251851 -0.5005672 1.1520056
0.65167832 -0.50705725 1.170447
0.64259511 -0.50722867 1.1741068
0.63305557 -0.50703967 1.1768732
0.62394434 -0.50719315 1.1803964
0.61737889 -0.50945204 1.1888499
0.59936082 -0.50218457 1.1747065
0.58863473 -0.50089532 1.174631
0.57794327 -0.49959514 1.1744664
0.57372898 -0.50394237 1.1877217
0.56816524 -0.50722724 1.198436
0.55467141 -0.50342399 1.1921368
0.55244184 -0.50988871 1.2104324
0.53826046 -0.50535494 1.2022487
0.5223698 -0.49902925 1.1896412
0.51181036 -0.49766186 1.1889185
0.50057203 -0.49557269 1.1863836
0.49328357 -0.49738893 1.1932706
0.48453617 -0.4977749 1.1966453
0.47781125 -0.50029325 1.2051784
0.46731329 -0.49888229 1.204083
0.45882592 -0.49960428 1.2081503
0.44869789 -0.49853286 1.2077762
0.4386012 -0.49745235 1.2073228
0.43255284 -0.50101507 1.2182457
0.42334551 -0.50099409 1.220312
0.41383651 -0.50060719 1.2214268
0.4052048 -0.50128812 1.2251334
0.3942754 -0.49909201 1.2216672
0.38286462 -0.49616781 1.2163289
0.37398854 -0.49646589 1.2189331
0.3656247 -0.49747583 1.2232655
0.35721946 -0.49847969 1.2275434
0.34575772 -0.49515918 1.2209839
0.34224433 -0.5033493 1.2431357
0.3284215 -0.49641085 1.2274191
0.31994447 -0.49738729 1.2314525
0.3109771 -0.49763632 1.2336203
0.30177742 -0.49751753 1.2348189
0.29087928 -0.49450383 1.228688
0.28564247 -0.50123036 1.2470264
0.27697009 -0.50217521 1.2507783
0.26459801 -0.49624643 1.2371399
0.2572774 -0.4997066 1.2471472
0.24928886 -0.5020771 1.2543706
0.23844221 -0.49865243 1.2468895
0.228549 -0.49702793 1.2439084
0.2233481 -0.50589687 1.2674845
0.21383591 -0.50534606 1.2671462
0.20360734 -0.50297564 1.2621381
0.19640419 -0.50820863 1.2764024
0.18834014 -0.51162457 1.2860183
0.17926084 -0.51249605 1.2891238
0.16954601 -0.51154667 1.2875483
0.16111335 -0.51458108 1.2960773
0.14925092 -0.50635725 1.2758597
0.14089845 -0.50974011 1.2851878
0.13176431 -0.510575 1.2879752
0.1221625 -0.50958681 1.2860633
0.11299733 -0.51040721 1.2887247
0.10350551 -0.509767 1.2876093
0.094102874 -0.50948256 1.2873571
0.083681546 -0.50301194 1.2712359
0.074948952 -0.50634658 1.2801479
0.065338895 -0.50385803 1.2741169
0.055738285 -0.50063455 1.2661566
0.046796191 -0.50322068 1.2730235
0.037460107 -0.50179988 1.2695878
0.028155245 -0.50000793 1.265156
0.018860608 -0.49675402 1.2569349
0.0097636962 -0.4974927 1.2588956
0.00063173962 -0.49204189 1.2449584
-0.0083993915 -0.49240243 1.2458634
-0.017430618 -0.49239212 1.2457749
-0.026461078 -0.49237457 1.2456245
-0.035437953 -0.49162251 1.2435502
-0.045011293 -0.4977718 1.2591032
-0.053464793 -0.49155137 1.2429413
-0.062428668 -0.49114147 1.2416137
-0.072698265 -0.49981195 1.2634776
-0.076319225 -0.46594888 1.1764854
-0.085648142 -0.4702453 1.1870848
-0.093676172 -0.46726665 1.179038
-0.10374001 -0.47409093 1.1960044
-0.10948643 -0.46165505 1.1637217
-0.11635353 -0.45539075 1.147182
-0.1237851 -0.45202699 1.1380184
-0.13300088 -0.45519194 1.1454734
-0.14120333 -0.45471972 1.1436085
-0.14950566 -0.45460391 1.1426121
-0.15691994 -0.45194265 1.1350956
-0.16503002 -0.45145184 1.133069
-0.17492881 -0.45566735 1.1429678
-0.18293785 -0.45480022 1.1398989
-0.20173036 -0.47964838 1.2020638
-0.20187263 -0.45992875 1.1510532
-0.20791627 -0.45469692 1.1367967
-0.21703687 -0.4563382 1.139923
-0.22496302 -0.45543942 1.1365755
-0.23266794 -0.45417309 1.1322621
-0.24128245 -0.45470852 1.1324618
-0.25209448 -0.45921117 1.1426216
-0.25876331 -0.45611945 1.1335846
-0.26891035 -0.45916045 1.1399541
-0.27676609 -0.45822304 1.1362649
-0.28278837 -0.45439491 1.1252823
-0.29305616 -0.45741251 1.1314448
-0.30176631 -0.45789859 1.1312069
-0.31073329 -0.45873755 1.1318055
-0.31822357 -0.45740965 1.1269445
-0.32720244 -0.45823467 1.1274191
-0.33567941 -0.4583331 1.1260356
-0.34415489 -0.45842469 1.1245912
-0.35400912 -0.46030468 1.1275439
-0.36138234 -0.45894626 1.1224102
-0.37101313 -0.46045154 1.1243322
-0.37714791 -0.45764753 1.1155497
-0.38528913 -0.45734736 1.1129237
-0.39772695 -0.46205136 1.1225818
-0.40372273 -0.45923138 1.1136574
-0.4150652 -0.46248421 1.1196177
-0.42422679 -0.46322542 1.1193522
-0.43007419 -0.46038961 1.1102899
-0.43853214 -0.46040386 1.1081651
-0.44905964 -0.46254918 1.1111867
-0.4571898 -0.46219146 1.108059
-0.46422473 -0.46075973 1.1022854
-0.47375503 -0.4618116 1.102494
-0.48554006 -0.46498582 1.1077741
-0.49063978 -0.46175864 1.0975477
-0.50328511 -0.46562201 1.1043631
-0.51138288 -0.46521932 1.1008561
-0.52104074 -0.4662258 1.1006821
-0.52911752 -0.46580794 1.0970507
-0.53676307 -0.46502972 1.0925208
-0.54520047 -0.46495119 1.0896183
-0.55362582 -0.46486485 1.0866539
-0.56587344 -0.46794203 1.0911267
-0.57303089 -0.46678078 1.0855211
-0.58451992 -0.46913034 1.0881438
-0.59296948 -0.46900761 1.0848925
-0.60140413 -0.46887675 1.0815794
-0.60845476 -0.46768576 1.0757501
-0.62238455 -0.47174197 1.0821
-0.62380439 -0.46633503 1.0663989
-0.63592887 -0.46896845 1.0693244
-0.639974 -0.46565303 1.0584513
-0.65117913 -0.46756601 1.0596018
-0.65997839 -0.46772411 1.0566597
-0.66628325 -0.46613321 1.0496757
-0.6760428 -0.4669688 1.0481987
-0.69599122 -0.47473341 1.0623978
-0.70640653 -0.47588387 1.0614719
-0.71528399 -0.47598293 1.0581146
-0.72309768 -0.47538027 1.0531356
-0.73459661 -0.47718579 1.0535179
-0.73217165 -0.47001052 1.0337825
-0.76043522 -0.48247325 1.0578002
-0.72876632 -0.45706132 0.99763268
0.78973645 -0.49785587 1.061206
0.7823928 -0.49889112 1.0673949
0.78368807 -0.50552297 1.0857487
0.79496694 -0.51882637 1.1187463
0.77335733 -0.51072675 1.1049538
0.76409459 -0.51068407 1.1087285
0.75325495 -0.50957376 1.1101
0.74243546 -0.50844973 1.1113797
0.73672825 -0.51084238 1.1204171
0.71985322 -0.50545406 1.1120871
0.71956098 -0.5117206 1.1297156
0.71068823 -0.51196843 1.1338762
0.70130718 -0.51185185 1.1371733
0.67415005 -0.49858549 1.1107217
0.67208147 -0.50376612 1.125834
0.66186553 -0.50289822 1.1272268
0.655366 -0.50486916 1.1350309
0.64787561 -0.50612146 1.1411722
0.63897967 -0.50629586 1.1448127
0.62117338 -0.49931291 1.1319618
0.61894292 -0.50482899 1.147776
0.61348766 -0.50784004 1.1578243
0.608347 -0.51120663 1.1686852
0.59635317 -0.50882941 1.1662004
0.58567303 -0.50751626 1.1661173
0.5762527 -0.50727046 1.1684624
0.56803799 -0.5080952 1.1732614
0.55978578 -0.5089128 1.1780055
0.54330593 -0.50215322 1.1649005
0.53434163 -0.50222862 1.1677777
0.52725464 -0.50410151 1.1748521
0.51823753 -0.50416237 1.177611
0.50847954 -0.50349176 1.1785886
0.49227348 -0.49629605 1.1640056
0.49006784 -0.50321001 1.1829046
0.47583279 -0.49779984 1.1724163
0.46722218 -0.4981789 1.175671
0.45792332 -0.49782455 1.1771257
0.44568053 -0.4941918 1.1706622
0.43516418 -0.49236426 1.1684605
0.43100616 -0.49780449 1.1837031
0.42202142 -0.49778259 1.1857657
0.41242647 -0.49702448 1.1860021
0.40551594 -0.49953946 1.1941112
0.39329842 -0.49548277 1.1862561
0.38914743 -0.50163609 1.2031243
0.37923875 -0.50048333 1.2022184
0.37071696 -0.50114936 1.2056892
0.36348635 -0.50363767 1.2135653
0.34895205 -0.49587458 1.1963614
0.34046125 -0.49651715 1.1996279
0.33267677 -0.49825233 1.2055303
0.32363555 -0.49814931 1.2068881
0.31297177 -0.49547169 1.2018746
0.30960366 -0.50452584 1.2256577
0.29935044 -0.50256836 1.2223299
0.28746524 -0.49766356 1.2116778
0.27904022 -0.49862611 1.2154361
0.27057707 -0.4995822 1.219139
0.26015049 -0.49685436 1.2136884
0.25372371 -0.50184327 1.227288
0.24442376 -0.50130796 1.2271743
0.23721424 -0.50518352 1.2379565
0.22819988 -0.50537127 1.2395536
0.21981464 -0.50702572 1.2447518
0.2113672 -0.50867397 1.2498962
0.20256479 -0.50957847 1.2531508
0.19428712 -0.51195157 1.2600223
0.18432131 -0.50989133 1.2558043
0.1753141 -0.51040578 1.2579576
0.16640618 -0.51128232 1.2609715
0.15655632 -0.50919783 1.2565466
0.14838268 -0.51264513 1.2658968
0.13978243 -0.51497817 1.2724253
0.13044104 -0.51471829 1.2724273
0.12075918 -0.51297253 1.268664
0.11121883 -0.51158816 1.2657572
0.10194788 -0.51130503 1.2655616
0.092685774 -0.51101434 1.2653021
0.083372489 -0.51034629 1.2640513
0.07343702 -0.50523216 1.2516055
0.064108633 -0.50343871 1.2474383
0.05524845 -0.50533676 1.2524872
0.045778695 -0.50130832 1.2426218
0.036127992 -0.49283201 1.2215458
0.027518736 -0.497668 1.2338374
0.018486697 -0.49583662 1.2293507
0.0095133521 -0.49362782 1.2238727
0.00062283222 -0.49400198 1.2248365
-0.0082376562 -0.49177864 1.2192364
-0.017094983 -0.49176833 1.2191496
-0.026146829 -0.495451 1.2282903
-0.034518901 -0.48765621 1.2085787
-0.043233816 -0.48688456 1.2064552
-0.052512884 -0.49165511 1.2181958
-0.060854673 -0.48753983 1.2075986
-0.06962844 -0.48748675 1.2071515
-0.075365491 -0.46856573 1.1593575
-0.083661243 -0.46776149 1.1569587
-0.091926716 -0.46695068 1.1545039
-0.1001616 -0.46613339 1.1519939
-0.10759084 -0.46198317 1.1411015
-0.11533286 -0.45967546 1.1347882
-0.12408298 -0.46142572 1.138589
-0.13278803 -0.46279916 1.1414028
-0.14063951 -0.4612112 1.1367743
-0.14819342 -0.4588789 1.1302516
-0.15742321 -0.46170822 1.1365741
-0.16542743 -0.46083948 1.1336262
-0.17353715 -0.46033353 1.1315447
-0.18264562 -0.46240234 1.1358343
-0.19806726 -0.47957671 1.1776536
-0.20901717 -0.48494074 1.1900047
-0.20841162 -0.46414006 1.1373092
-0.21634746 -0.46323219 1.1340232
-0.225676 -0.46526292 1.137985
-0.23359273 -0.46434182 1.1345848
-0.24051493 -0.46157578 1.126583
-0.2509025 -0.46542284 1.1348979
-0.25937587 -0.46558511 1.1340537
-0.26742861 -0.46500582 1.1313376
-0.27436811 -0.46258473 1.1240461
-0.28413302 -0.46492964 1.1284522
-0.29351518 -0.4665319 1.1309772
-0.29986557 -0.46336028 1.1217341
-0.30829278 -0.46348262 1.120542
-0.3159692 -0.46249956 1.1166011
-0.3277123 -0.46736664 1.1269231
-0.33725417 -0.46892935 1.1291037
-0.34334245 -0.46573105 1.119627
-0.35345203 -0.46800992 1.1234587
-0.35968363 -0.46516734 1.1147871
-0.36927482 -0.46670017 1.1167078
-0.37625813 -0.46494219 1.1106035
-0.38468164 -0.46500155 1.1088638
-0.39402482 -0.46614653 1.1097007
-0.40591526 -0.47019434 1.1174786
-0.41281223 -0.46841067 1.1111529
-0.41964081 -0.46662238 1.1047879
-0.43106458 -0.46991369 1.1105665
-0.43852258 -0.4688383 1.1058282
-0.44870204 -0.47065812 1.1079662
-0.45576969 -0.4692069 1.1022511
-0.46457097 -0.46956083 1.1007969
-0.4733769 -0.46990675 1.0992761
-0.47996333 -0.46807593 1.0925553
-0.48836327 -0.4680464 1.0900636
-0.49866915 -0.46981353 1.0917623
-0.50630301 -0.46904626 1.0874389
-0.51271629 -0.46719196 1.0805302
-0.5270865 -0.4725309 1.0904315
-0.52899516 -0.46670604 1.0741657
-0.53979725 -0.46878684 1.0763338
-0.5502407 -0.47049686 1.0775725
-0.55562299 -0.467893 1.0687513
-0.56393027 -0.46779332 1.0657049
-0.57266194 -0.46804339 1.0634223
-0.58050394 -0.46756968 1.0594292
-0.59011853 -0.46851677 1.0586557
-0.60841292 -0.47623128 1.0732976
-0.60248387 -0.46503413 1.0446855
-0.61160195 -0.46559909 1.042912
-0.62640876 -0.47042081 1.0507357
-0.6375277 -0.47238135 1.0519866
-0.6569469 -0.48035941 1.0667236
-0.67219609 -0.48512051 1.0740823
-0.69553643 -0.49552396 1.0939626
-0.74181879 -0.52180129 1.1490759
-0.75894958 -0.52717221 1.157261
-0.71403676 -0.489847 1.0706581
-0.7448262 -0.50473267 1.099933
-0.72773904 -0.48720685 1.0575633
-0.71538311 -0.47322854 1.0232002
-0.70793074 -0.46278474 0.99673909
-0.72182119 -0.46637398 1.0009811
-0.72211248 -0.46119499 0.98608738
0.71428841 -0.45840329 0.95607233
0.74168789 -0.48145398 1.0086653
0.75315779 -0.49457967 1.040388
0.78729194 -0.52307206 1.1051904
0.78065658 -0.52483296 1.1129113
0.77605176 -0.52801782 1.123686
0.77028912 -0.53048301 1.1329046
0.77574903 -0.54083306 1.1592391
0.73457092 -0.51852059 1.1145017
0.73281866 -0.52382582 1.129778
0.71695971 -0.51905417 1.1229827
0.68895459 -0.50525117 1.0962055
0.67934763 -0.5047552 1.0985614
0.66782433 -0.50280309 1.0976425
0.66014248 -0.50372964 1.103044
0.65241802 -0.50464845 1.1083957
0.65435553 -0.51317018 1.1306938
0.63045585 -0.50138402 1.1075708
0.62719148 -0.5059064 1.1208826
0.6219902 -0.50897473 1.1309301
0.60791093 -0.50476158 1.124525
0.60303777 -0.50818086 1.1353053
0.5886631 -0.50357562 1.127862
0.58787781 -0.51063246 1.1468629
0.5702821 -0.50308013 1.1325624
0.5586409 -0.50062442 1.1297883
0.55350369 -0.50401205 1.1403399
0.54191053 -0.50153559 1.1374035
0.53740603 -0.50564653 1.1495709
0.52968645 -0.50682032 1.1549531
0.51550335 -0.50174356 1.1458346
0.50816447 -0.50326705 1.1519269
0.49967107 -0.50368124 1.1554095
0.49151465 -0.50445628 1.1596903
0.47733119 -0.49895981 1.1492929
0.46817473 -0.49861002 1.1508352
0.45834288 -0.49751371 1.1505785
0.45054373 -0.49862409 1.1554475
0.4423725 -0.4993588 1.159397
0.43416959 -0.5000869 1.1632916
0.42530558 -0.50006807 1.1653827
0.41736135 -0.50115281 1.1700385
0.40514404 -0.49704236 1.162347
0.3992728 -0.50070775 1.1730329
0.38777143 -0.4973188 1.1669312
0.38006002 -0.49874601 1.1722262
0.37063423 -0.49793789 1.1721555
0.3628521 -0.49935234 1.1773423
0.35316959 -0.49815685 1.1762508
0.34223682 -0.49509144 1.1706263
0.33567002 -0.49834704 1.1800997
0.32703033 -0.49861756 1.1823794
0.31837657 -0.49888119 1.184599
0.30947769 -0.49876472 1.1858602
0.29967856 -0.49714795 1.1834581
0.29102385 -0.49738938 1.1854882
0.28278062 -0.49837106 1.1892648
0.27573195 -0.501589 1.198414
0.26458833 -0.49732396 1.1894079
0.25551403 -0.49678886 1.1893811
0.24701245 -0.49736881 1.1920146
0.24261135 -0.50655311 1.2155154
0.23529385 -0.51011926 1.2253494
0.22751571 -0.51293129 1.2333189
0.21548569 -0.50599295 1.2174978
0.20752217 -0.50841582 1.2244321
0.19800618 -0.5070824 1.222164
0.19007276 -0.50986773 1.2299064
0.18150574 -0.51114619 1.2339314
0.17263788 -0.51166719 1.2360638
0.16338916 -0.51105452 1.2353789
0.15552101 -0.51494128 1.2456666
0.14537744 -0.51130885 1.2374965
0.13766438 -0.51630992 1.250439
0.12734038 -0.51153362 1.2393665
0.11787865 -0.50975525 1.2355957
0.10912047 -0.51097673 1.2391423
0.099802136 -0.50955886 1.2361648
0.090130486 -0.50587642 1.2275766
0.081070699 -0.50519472 1.2263144
0.072141394 -0.50525796 1.2268394
0.063067734 -0.50418514 1.2245274
0.053829167 -0.50122321 1.2175239
0.044829734 -0.49975878 1.2141591
0.03604418 -0.50054485 1.2162882
0.027128207 -0.49944189 1.2137262
0.018044215 -0.49268571 1.1972071
0.0093345381 -0.49307337 1.1982273
0.00060926919 -0.49194837 1.195482
-0.0080946498 -0.49194527 1.1954564
-0.016746804 -0.49042943 1.1916656
-0.025442505 -0.4907884 1.1924473
-0.034045737 -0.48963475 1.189465
-0.042574704 -0.4880977 1.1854985
-0.051798686 -0.49370337 1.1990619
-0.061496835 -0.50155848 1.2181096
-0.066879347 -0.47667339 1.1566062
-0.073877349 -0.46758649 1.1339277
-0.083196275 -0.47354007 1.1481804
-0.090324268 -0.46707472 1.1318779
-0.09912727 -0.46962887 1.137693
-0.10733084 -0.46916771 1.1360624
-0.11607229 -0.47095513 1.1399084
-0.12408084 -0.46972865 1.13632
-0.13267957 -0.47075003 1.1382027
-0.14007466 -0.46763253 1.1299051
-0.14807251 -0.46676278 1.1270781
-0.15616317 -0.4662621 1.1251159
-0.16582194 -0.47025871 1.1341082
-0.17422935 -0.47049409 1.1338586
-0.1813326 -0.46734691 1.1253109
-0.19030006 -0.4690693 1.1286108
-0.21313193 -0.50339389 1.2113104
-0.21154752 -0.47960949 1.1523423
-0.21634342 -0.47156683 1.1317273
-0.22263831 -0.46726754 1.1202043
-0.23173848 -0.46895301 1.1231909
-0.23859628 -0.46614105 1.1152194
-0.24693646 -0.46631628 1.1144587
-0.255279 -0.46648464 1.1136388
-0.26446792 -0.46814051 1.1163731
-0.27436331 -0.4709084 1.1217415
-0.27964538 -0.46582833 1.108124
-0.2893579 -0.46820801 1.1124644
-0.29938576 -0.47095132 1.1176233
-0.30463412 -0.46623123 1.1047909
-0.31746334 -0.47305632 1.1196483
-0.3259086 -0.47316602 1.1183276
-0.3296214 -0.46657151 1.1009228
-0.33902556 -0.46815842 1.1030679
-0.34737659 -0.46825001 1.1015921
-0.35544339 -0.46796316 1.0991718
-0.36493739 -0.46952561 1.1011086
-0.37595382 -0.47293368 1.1073723
-0.38286436 -0.47114068 1.101239
-0.38755438 -0.46674991 1.0889306
-0.4015058 -0.47346351 1.1028425
-0.40703383 -0.4701727 1.0930684
-0.41276973 -0.46724901 1.0841433
-0.42239386 -0.46875516 1.0856055
-0.43240166 -0.47062084 1.0878541
-0.44004825 -0.46989468 1.0839784
-0.44766304 -0.46916214 1.0800512
-0.45631966 -0.4695282 1.0786477
-0.46461707 -0.46951824 1.076323
-0.47846159 -0.47501576 1.0867336
-0.47817579 -0.46653712 1.0646884
-0.49213919 -0.47201264 1.0749207
-0.50161201 -0.47307032 1.0748705
-0.50953186 -0.47265285 1.0713735
-0.52224237 -0.476621 1.0778974
-0.52611768 -0.47252774 1.0658869
-0.53356731 -0.47172254 1.0613843
-0.54140025 -0.47127581 1.0576639
-0.5492087 -0.47082171 1.0538884
-0.55785531 -0.47108886 1.0517091
-0.57218748 -0.47607881 1.0601531
-0.58135223 -0.47668687 1.0586206
-0.59951442 -0.48454961 1.0733378
-0.62839651 -0.50073266 1.1065556
-0.64810872 -0.50926042 1.1224196
-0.64005506 -0.49603608 1.089669
-0.65237433 -0.49874467 1.0924368
-0.64704788 -0.48807076 1.065487
-0.65736097 -0.48931965 1.0649605
-0.67456943 -0.49560204 1.0754527
-0.69146985 -0.50149977 1.084971
-0.65682304 -0.47033617 1.0133038
-0.61761034 -0.43672383 0.9366954
-0.62816167 -0.43869635 0.93785089
-0.6829043 -0.47110638 1.0048575
-0.67671037 -0.46120417 0.98002696
-0.67920947 -0.4573921 0.96840239
-0.66548604 -0.44287378 0.93384838
-0.67621672 -0.44477794 0.9345513
-0.71983582 -0.4680216 0.98060071
0.71917731 -0.46970677 0.96038675
0.71309054 -0.47108033 0.96683687
0.7210409 -0.48186678 0.99296731
0.69430357 -0.46945265 0.97049683
0.6796149 -0.46498692 0.96455437
0.66820163 -0.46268156 0.96307641
0.68646604 -0.48112005 1.005545
0.73600674 -0.52220434 1.0964545
0.71715617 -0.5151844 1.085142
0.73971796 -0.5381127 1.1378716
0.73471755 -0.54132128 1.148474
0.71929002 -0.53683096 1.1424683
0.70641643 -0.5341537 1.1402781
0.69217569 -0.5303576 1.1355777
0.67662191 -0.52543932 1.1283383
0.67570835 -0.53191108 1.1458553
0.65472066 -0.52254105 1.1287223
0.62764019 -0.50797617 1.1000179
0.61631221 -0.50592661 1.0986456
0.61214149 -0.50977814 1.1102332
0.60170418 -0.50844753 1.1103482
0.59605038 -0.51117957 1.1194212
0.58476067 -0.5090878 1.1177434
0.57394856 -0.50735396 1.1167942
0.5640108 -0.50635087 1.1174147
0.55409616 -0.50533712 1.1179546
0.54259896 -0.50282407 1.1150669
0.53236163 -0.50141543 1.1145954
0.52527696 -0.50297868 1.1207768
0.5154494 -0.50192398 1.1210017
0.51432097 -0.50944966 1.1406411
0.49327824 -0.49716774 1.1152638
0.48685753 -0.49944788 1.1229085
0.4764103 -0.4976052 1.1211137
0.46918693 -0.49912396 1.1269495
0.46086782 -0.49951228 1.1301621
0.45864379 -0.50664854 1.1488392
0.4421688 -0.4980135 1.1312233
0.43284681 -0.4972508 1.1316458
0.43252811 -0.5070107 1.1563352
0.41331679 -0.49457005 1.1296614
0.40468884 -0.49453372 1.1316102
0.39545235 -0.493736 1.1317452
0.38889652 -0.49632415 1.1397094
0.37935621 -0.49513429 1.1388421
0.37126431 -0.49582356 1.1423092
0.36231458 -0.4953728 1.1430708
0.35418475 -0.49604836 1.1464231
0.34523627 -0.49558249 1.1470585
0.33861262 -0.49851543 1.1556307
0.32636967 -0.49311224 1.1445686
0.31796923 -0.49337983 1.1467856
0.30907971 -0.49288234 1.147156
0.30020279 -0.49237704 1.1474615
0.29066443 -0.49072549 1.14501
0.28336152 -0.49286228 1.1514748
0.27492246 -0.49309447 1.153394
0.26955095 -0.49902061 1.1687831
0.26337609 -0.50380421 1.1814456
0.24953568 -0.49374929 1.1588007
0.24253711 -0.49699798 1.1677333
0.2356026 -0.50062287 1.1775347
0.22836745 -0.50386244 1.1863902
0.21802856 -0.50023943 1.1788332
0.2103633 -0.5027045 1.1857646
0.19985768 -0.49830142 1.1762383
0.19301321 -0.50304127 1.1885335
0.18712036 -0.51082885 1.2081034
0.17802647 -0.51021832 1.2075279
0.16616698 -0.50120211 1.1867454
0.15725608 -0.50057387 1.186023
0.15085828 -0.5083403 1.2054164
0.14226834 -0.50922686 1.208257
0.13364579 -0.5101065 1.21104
0.1249909 -0.51097912 1.2137649
0.11621723 -0.51146251 1.2155118
0.10710428 -0.51040918 1.2135166
0.098541632 -0.51202482 1.2179049
0.088716395 -0.50674945 1.2056485
0.0796763 -0.50529009 1.2025386
0.0708469 -0.50497079 1.2021323
0.061416347 -0.49967024 1.18967
0.052855644 -0.50086606 1.1928304
0.043780521 -0.49669743 1.1830066
0.035391361 -0.50017482 1.1915885
0.026492815 -0.49637371 1.1825649
0.017891452 -0.49715781 1.1845645
0.0092982845 -0.4998484 1.1911244
0.0005943228 -0.48837048 1.1634426
-0.0079579549 -0.49219468 1.1726558
-0.016488859 -0.49141902 1.1707245
-0.02507041 -0.49216703 1.1724296
-0.0333637 -0.48831537 1.1629933
-0.042342458 -0.49402386 1.1765851
-0.050966606 -0.49436733 1.1771886
-0.060062766 -0.49852952 1.18696
-0.06555789 -0.47552192 1.1311731
-0.073222026 -0.47163832 1.121475
-0.082202695 -0.47616294 1.1320041
-0.091193795 -0.47991455 1.1406236
-0.098965548 -0.47715825 1.1335255
-0.10629641 -0.47286686 1.1226979
-0.11468002 -0.47353873 1.1237798
-0.12199415 -0.47000018 1.1146961
-0.13129982 -0.47409695 1.1239302
-0.14029564 -0.47665709 1.1294227
-0.14842576 -0.47615442 1.1275153
-0.15540554 -0.47220948 1.117312
-0.16370104 -0.47245774 1.1171323
-0.17130852 -0.47079143 1.1123254
-0.18001914 -0.47217056 1.1147735
-0.18923061 -0.4746857 1.119893
-0.21422412 -0.5149256 1.2151123
-0.21550095 -0.49721673 1.1717646
-0.21221559 -0.47075355 1.1075655
-0.22049358 -0.47095394 1.1069876
-0.22803602 -0.46962512 1.1027269
-0.2383993 -0.47399682 1.1119903
-0.24356689 -0.46809107 1.0967721
-0.25506842 -0.47434643 1.1104062
-0.26277357 -0.47337097 1.1068236
-0.27131099 -0.47390848 1.1067876
-0.27807161 -0.4714022 1.0995082
-0.28497276 -0.46927083 1.0930874
-0.29582328 -0.47358069 1.1018336
-0.30438325 -0.47408944 1.1015562
-0.31420478 -0.47648445 1.1056716
-0.32077238 -0.47394881 1.0981445
-0.32751161 -0.47178727 1.0914704
-0.33740118 -0.4741587 1.0953879
-0.34378502 -0.47160774 1.0877327
-0.34979537 -0.46867523 1.0791627
-0.36348397 -0.47592977 1.0943257
-0.36916259 -0.47260693 1.0847684
-0.37683034 -0.47191989 1.0813198
-0.38508382 -0.47197995 1.0795677
-0.39521527 -0.47429132 1.0829864
-0.4038184 -0.47471148 1.0819712
-0.4091664 -0.47136489 1.0722185
-0.41772169 -0.47177199 1.071097
-0.42526734 -0.4710452 1.067323
-0.43347234 -0.4710623 1.0652193
-0.44518456 -0.47481945 1.0716355
-0.45415387 -0.47556761 1.0710988
-0.46204916 -0.47518444 1.067933
-0.46807411 -0.47292504 1.0604594
-0.47777861 -0.47439709 1.0614356
-0.48561192 -0.47399282 1.0581044
-0.49342382 -0.47358143 1.0547185
-0.5071336 -0.47875142 1.0638763
-0.51980227 -0.48278743 1.0703857
-0.5301531 -0.48457652 1.0717669
-0.54798633 -0.49304196 1.0880262
-0.55980122 -0.49591503 1.0916622
-0.61378014 -0.53548664 1.1769354
-0.63282382 -0.54385215 1.1924008
-0.6289618 -0.53257591 1.1642146
-0.64288926 -0.53647155 1.1696284
-0.61247659 -0.50378448 1.0943611
-0.63377649 -0.51395494 1.1135936
-0.63465089 -0.50750893 1.0962573
-0.63904095 -0.50401253 1.0853993
-0.60454768 -0.47035822 1.0088687
-0.59481031 -0.456606 0.97594279
-0.58704585 -0.44471058 0.94717664
-0.56810868 -0.42477074 0.90117151
-0.60854065 -0.44916278 0.95075732
-0.61209953 -0.44606563 0.94103056
-0.60387677 -0.43456763 0.91335386
-0.63222951 -0.44934928 0.94178081
-0.67607719 -0.47464851 0.99228913
-0.66037709 -0.4580355 0.95371646
-0.66164231 -0.45344529 0.94069666
-0.67185897 -0.45502561 0.94067162
-0.6929363 -0.46383911 0.9557296
-0.71043986 -0.47008511 0.96526116
0.722938 -0.48037165 0.9631027
0.7315895 -0.49170342 0.98987299
0.71334231 -0.48500976 0.97978705
0.6899206 -0.47459921 0.96190965
0.67953062 -0.47301215 0.96207559
0.67862117 -0.47806558 0.97595036
0.65885174 -0.46979406 0.96213198
0.66397017 -0.47928372 0.98523968
0.66116571 -0.48321986 0.9968068
0.65772384 -0.4867838 1.0076057
0.64125365 -0.48067331 0.99801558
0.64114827 -0.48683006 1.0142478
0.66362137 -0.51051825 1.0677152
0.66187495 -0.51595736 1.0826135
0.67602992 -0.53410649 1.1246679
0.6634385 -0.5313319 1.1221129
0.6476925 -0.52591878 1.1138122
0.64758885 -0.5332334 1.1328049
0.63285869 -0.52854133 1.1259142
0.63511932 -0.53810883 1.1497978
0.63312656 -0.54430091 1.166419
0.6020112 -0.5252676 1.1281477
0.61149323 -0.5416162 1.1668423
0.5843643 -0.52554166 1.1347189
0.56352895 -0.51471376 1.1138803
0.55688262 -0.51670796 1.1210786
0.54374212 -0.51264358 1.1148946
0.52993321 -0.50780565 1.1069123
0.5209406 -0.50749862 1.1088717
0.5123322 -0.50756186 1.111605
0.50333673 -0.5072372 1.1134307
0.48952606 -0.50196362 1.1041702
0.48389584 -0.50503987 1.1134771
0.46991956 -0.49935883 1.1031526
0.46069691 -0.49861255 1.1038071
0.45771423 -0.50471896 1.1198236
0.44400114 -0.49900028 1.1092004
0.43480036 -0.49822825 1.109652
0.42790672 -0.50012183 1.1160834
0.42094415 -0.50201041 1.1224754
0.41202712 -0.50159824 1.1236143
0.39757434 -0.49428615 1.1090095
0.38878682 -0.49385294 1.1099777
0.38177949 -0.49571189 1.1161313
0.37210467 -0.49411315 1.1143496
0.36473775 -0.49557588 1.1195236
0.35455546 -0.49319196 1.1158417
0.34795401 -0.49579424 1.123554
0.33941746 -0.49570021 1.1250377
0.33062223 -0.49521399 1.1255736
0.32359168 -0.49741492 1.1322632
0.31160259 -0.49190679 1.1211123
0.30573258 -0.49602076 1.1321452
0.2985647 -0.49820375 1.1386867
0.29154387 -0.50076747 1.146081
0.28203338 -0.49908054 1.1435759
0.27342215 -0.49892929 1.1445886
0.26378655 -0.49683902 1.1410444
0.25818989 -0.50246996 1.1554381
0.25105497 -0.50539172 1.1634976
0.24233346 -0.50521386 1.1642904
0.23343554 -0.50464153 1.1641171
0.22627838 -0.5079329 1.1729375
0.21718161 -0.5069592 1.1717417
0.20747738 -0.50442779 1.1668477
0.19892563 -0.50460023 1.1682433
0.19080383 -0.5059284 1.1723101
0.18165694 -0.50453556 1.1699462
0.1726879 -0.50352246 1.1684277
0.16400379 -0.50327748 1.1686707
0.15652426 -0.50690645 1.1779909
0.14654095 -0.50237709 1.1680607
0.13958904 -0.50832295 1.1827667
0.12963203 -0.50338858 1.1717862
0.12208317 -0.50776887 1.18273
0.11273444 -0.50476044 1.1761992
0.10436852 -0.50601876 1.1796967
0.095590644 -0.50532657 1.1785462
0.087102719 -0.50618196 1.18101
0.078222878 -0.50469714 1.1779003
0.069875345 -0.50670451 1.1830059
0.060941514 -0.5044269 1.177935
0.052326798 -0.50447524 1.1783234
0.043574981 -0.50296021 1.1749701
0.035063807 -0.50416076 1.178002
0.026062222 -0.49679536 1.1607139
0.017601078 -0.49759206 1.1627058
0.0090698926 -0.49604723 1.1591126
0.00058637385 -0.49021545 1.1453276
-0.0078708436 -0.49527016 1.1572784
-0.016308105 -0.49448174 1.1553531
-0.024367448 -0.48668349 1.1367918
-0.032603975 -0.48549208 1.1338338
-0.041782308 -0.49596351 1.1584395
-0.05021403 -0.49553534 1.1572037
-0.059090838 -0.49898919 1.1651113
-0.065555148 -0.48376873 1.1288055
-0.072210766 -0.47321084 1.1035039
-0.080220081 -0.4727571 1.1020621
-0.088720843 -0.47501764 1.1069951
-0.097138844 -0.47649324 1.1100307
-0.10474705 -0.47407553 1.1038321
-0.11402833 -0.4790335 1.1150041
-0.1210984 -0.47466025 1.1041162
-0.13002621 -0.47766054 1.110581
-0.13714464 -0.47405219 1.1014287
-0.14711139 -0.48014262 1.1150824
-0.15527457 -0.48001409 1.1140447
-0.16343102 -0.47987869 1.1129508
-0.17130296 -0.47896072 1.1099784
-0.17899589 -0.47764879 1.1060437
-0.18542664 -0.47323012 1.0947852
-0.21499453 -0.52576172 1.2169963
-0.22505453 -0.52828676 1.2218386
-0.21186568 -0.47814804 1.1033995
-0.21941784 -0.47680399 1.099202
-0.22655202 -0.47468039 1.0931493
-0.23494923 -0.4752585 1.093369
-0.24257171 -0.47428319 1.0899251
-0.25117868 -0.47523358 1.0909283
-0.25791743 -0.47270051 1.0837854
-0.2680425 -0.47633913 1.0909499
-0.27716741 -0.47803813 1.0935539
-0.28496408 -0.47741476 1.0907259
-0.29060575 -0.47331613 1.0798187
-0.2997523 -0.47499329 1.0822424
-0.30870092 -0.4762767 1.0837057
-0.31717578 -0.47678208 1.0833262
-0.3248755 -0.47612607 1.0802294
-0.33308613 -0.47623253 1.0788473
-0.33826753 -0.47210628 1.0677121
-0.34555954 -0.47104925 1.0635951
-0.35569119 -0.47382307 1.0682054
-0.36237696 -0.47198525 1.0622243
-0.37110126 -0.47282481 1.0623181
-0.37831235 -0.47174171 1.0579888
-0.38704878 -0.47256607 1.0579591
-0.39516684 -0.47261727 1.0561279
-0.40328044 -0.47266111 1.0542378
-0.41138911 -0.47269765 1.052289
-0.42423257 -0.47806832 1.0623227
-0.43448681 -0.48037344 1.0653695
-0.4451606 -0.48304835 1.0691831
-0.45341361 -0.48304683 1.0669322
-0.47910765 -0.50129402 1.1054407
-0.49023059 -0.50392222 1.1088829
-0.50218272 -0.50729728 1.1139174
-0.53945124 -0.535698 1.1744587
-0.55472785 -0.54167646 1.1849769
-0.55796438 -0.53589487 1.1693858
-0.57341802 -0.54184443 1.1796815
-0.57929701 -0.53870112 1.1698599
-0.58795291 -0.53819811 1.1658193
-0.61207247 -0.55164766 1.1922821
-0.58564883 -0.51982665 1.1196932
-0.58791697 -0.51404297 1.1041259
-0.55068648 -0.47440261 1.0150404
-0.55114138 -0.46790645 0.99817377
-0.55137998 -0.46141505 0.9813534
-0.56413084 -0.46542978 0.98720282
-0.56640649 -0.46081054 0.97441691
-0.58718103 -0.47116175 0.99371141
-0.59457374 -0.47064054 0.98961776
-0.59189808 -0.46226975 0.96877849
-0.59911168 -0.46174127 0.96465313
-0.59062505 -0.44928345 0.93525368
-0.60800183 -0.45656699 0.94762087
-0.61606741 -0.45676246 0.94494891
-0.67584068 -0.49481037 1.0215625
-0.62807512 -0.45415735 0.93322426
-0.6303699 -0.45025319 0.92191637
-0.63305545 -0.44671899 0.91139388
-0.66422212 -0.46312737 0.94211644
-0.67820799 -0.46731105 0.94737887
-0.83617467 -0.56945115 1.1536396
-0.73328573 -0.49363717 0.99434167
0.7255736 -0.49036154 0.96423483
0.73090661 -0.49963889 0.98645097
0.73648912 -0.50930446 1.0095457
0.71070457 -0.49725088 0.98887557
0.68208367 -0.48290253 0.96334213
0.70264232 -0.50344616 1.0085315
0.66084194 -0.47926536 0.96269435
0.65566862 -0.481379 0.97032654
0.65498364 -0.48688176 0.98491174
0.65211153 -0.49087742 0.99642497
0.63968277 -0.48768947 0.99309641
0.63027871 -0.48675472 0.99435967
0.61120427 -0.47822896 0.97977358
0.60864806 -0.48257267 0.99190098
0.59838378 -0.48083976 0.99132043
0.58956158 -0.48023409 0.99304491
0.585356 -0.48342428 1.0027156
0.57012028 -0.47746664 0.99306291
0.5833509 -0.49551943 1.0341538
0.59157687 -0.50978208 1.0673668
0.56349921 -0.49272034 1.0339884
0.61614364 -0.54678494 1.1522617
0.61095864 -0.55038983 1.1630605
0.60858339 -0.55667561 1.1796073
0.60889095 -0.56564993 1.201961
0.61908001 -0.58423406 1.2450964
0.60341102 -0.57862127 1.236046
0.58712029 -0.57221878 1.2251742
0.56286013 -0.55770665 1.1965635
0.54632193 -0.55048388 1.1836344
0.53113455 -0.54439688 1.1730649
0.50391477 -0.52554768 1.1344655
0.4856641 -0.51554716 1.1150411
0.47416815 -0.51248389 1.1107216
0.4666312 -0.51366544 1.1156756
0.45352232 -0.50864232 1.1069053
0.43785515 -0.50050199 1.091154
0.42976782 -0.50087684 1.0941508
0.42100847 -0.50046784 1.0953676
0.40809184 -0.49499953 1.0852873
0.40413883 -0.50040239 1.0993366
0.39508107 -0.49957991 1.099493
0.38363332 -0.4956339 1.0926168
0.37466854 -0.4947919 1.0926182
0.36803496 -0.49706012 1.0995469
0.36358002 -0.50244445 1.1134504
0.35535693 -0.50275362 1.1159284
0.343615 -0.49797815 1.1069063
0.33544493 -0.49827009 1.1092459
0.32674709 -0.49777284 1.109761
0.31906188 -0.4988327 1.1137549
0.30963051 -0.4971461 1.111487
0.29882619 -0.49310049 1.1038121
0.29207623 -0.49570507 1.1111846
0.28680697 -0.50104934 1.1247644
0.27787006 -0.50011569 1.1240286
0.27044022 -0.50192088 1.1294924
0.26479128 -0.50725383 1.1429795
0.25380245 -0.50237179 1.133098
0.24681041 -0.5053373 1.1411097
0.23934567 -0.50751173 1.1472807
0.23252077 -0.51125365 1.1570137
0.22160476 -0.50594229 1.1459396
0.21600141 -0.51282024 1.1628052
0.20459336 -0.505916 1.1479638
0.19860287 -0.51239026 1.1638432
0.19034848 -0.51334578 1.1669927
0.18178052 -0.51350623 1.1682706
0.17347057 -0.51444793 1.1713083
0.16373703 -0.51104498 1.1642776
0.15531246 -0.51157707 1.1662834
0.1464154 -0.51052397 1.1645846
0.13840394 -0.51261991 1.1701236
0.12932102 -0.51076227 1.1664773
0.12104521 -0.5120548 1.1700776
0.11255101 -0.51255059 1.1717933
0.1040387 -0.51303923 1.1734514
0.095288202 -0.51233548 1.1723042
0.086760588 -0.51280934 1.1738448
0.077132098 -0.50616348 1.1588275
0.068690144 -0.50662172 1.1602445
0.060654443 -0.51062983 1.1698604
0.051274095 -0.5027734 1.1518934
0.042628407 -0.50044239 1.1467085
0.034087546 -0.49849907 1.1423813
0.025305733 -0.49061814 1.1242203
0.017297206 -0.49735761 1.1399789
0.0089483755 -0.49776429 1.1409872
0.00058400992 -0.49658236 1.1382644
-0.00767875 -0.49143946 1.1262993
-0.01605051 -0.49498746 1.1344843
-0.024268661 -0.49299327 1.1297541
-0.032262724 -0.48862001 1.1194592
-0.04079688 -0.49254149 1.1283894
-0.049186371 -0.49368837 1.1308343
-0.058671933 -0.50391817 1.1543217
-0.063971937 -0.48015246 1.0988648
-0.071970902 -0.47969848 1.0974816
-0.080019362 -0.47963262 1.0969602
-0.088427067 -0.48153505 1.1009626
-0.096897155 -0.48342982 1.1049047
-0.10457141 -0.48136806 1.0996383
-0.11162051 -0.47693121 1.088838
-0.12030148 -0.47959432 1.0944386
-0.12790795 -0.47790834 1.0899345
-0.13713937 -0.48213437 1.099061
-0.14532185 -0.48240685 1.0990031
-0.15263326 -0.4799118 1.0925155
-0.16210307 -0.4841131 1.1014442
-0.1688004 -0.48002863 1.0912178
-0.17695561 -0.48027349 1.0909384
-0.18511637 -0.48051134 1.0906022
-0.20879543 -0.51932734 1.1789469
-0.22651078 -0.54079103 1.2272238
-0.21699825 -0.49810007 1.1280876
-0.21745102 -0.48060468 1.0868785
-0.223038 -0.47530329 1.0736464
-0.23035561 -0.47392893 1.0693874
-0.24038951 -0.47804821 1.0776561
-0.24974024 -0.48058641 1.0822531
-0.25832912 -0.48154551 1.083194
-0.26499262 -0.47896627 1.0760261
-0.27246091 -0.47795087 1.0723909
-0.27989158 -0.47692946 1.068707
-0.28799367 -0.47707716 1.0676425
-0.29512468 -0.47565177 1.0629699
-0.29971087 -0.47030821 1.0493946
-0.31127855 -0.47591308 1.0605654
-0.32066581 -0.47798714 1.0636879
-0.32796738 -0.47692683 1.0596901
-0.3302792 -0.46883413 1.0398304
-0.34385803 -0.47673956 1.0559379
-0.35366133 -0.47916958 1.0596633
-0.36471501 -0.48314792 1.0667973
-0.37439039 -0.48516682 1.0694783
-0.388421 -0.49262339 1.0842396
-0.4020617 -0.4992846 1.0971274
-0.41431507 -0.503986 1.1055593
-0.44495562 -0.53041774 1.1621515
-0.45552748 -0.53235805 1.1642075
-0.47122902 -0.54010302 1.1790376
-0.48476115 -0.54511577 1.1877228
-0.49879748 -0.55049926 1.1971326
-0.50228924 -0.54426092 1.1809005
-0.50593567 -0.53841025 1.1655287
-0.5056923 -0.5286985 1.1417147
-0.49649203 -0.5101192 1.098583
-0.53745872 -0.54283971 1.1673625
-0.5430004 -0.53928554 1.1569146
-0.49602047 -0.48454186 1.0354396
-0.50770706 -0.48794964 1.0402986
-0.48862377 -0.46214661 0.98203492
-0.49468729 -0.46056288 0.97614735
-0.50612986 -0.46395883 0.98093075
-0.50875944 -0.45929563 0.96837449
-0.5241434 -0.46611404 0.98035872
-0.5336228 -0.46755815 0.98077518
-0.54136825 -0.46746317 0.97786462
-0.55403131 -0.47155648 0.98378968
-0.55954438 -0.46953449 0.9767046
-0.57464582 -0.47550279 0.98643857
-0.57780552 -0.47156149 0.97524154
-0.58743781 -0.47293785 0.97519153
-0.58372581 -0.4636775 0.95287222
-0.59035474 -0.46276715 0.94801515
-0.59156144 -0.45768538 0.93447369
-0.60497761 -0.46205911 0.94052231
-0.59647804 -0.44979569 0.912166
-0.65648413 -0.4888519 0.9894225
-0.7079249 -0.52064365 1.0512284
-0.79449195 -0.57717758 1.1630754
-0.83719027 -0.60086292 1.2072518
-0.83083516 -0.58919698 1.1793634
-0.98187631 -0.68811107 1.3750379
-0.82891333 -0.57415247 1.140631
-0.83523148 -0.57187366 1.131879
0.75080824 -0.51594085 0.99574441
0.77554196 -0.53905815 1.0449543
0.77363467 -0.54398012 1.0585347
0.80581039 -0.5732649 1.1204138
0.84346318 -0.60718912 1.1918863
0.81880653 -0.59653509 1.1748397
0.77630842 -0.5724647 1.1307384
0.67914921 -0.50699526 1.0030973
0.6619795 -0.50034964 0.99309856
0.65401483 -0.5005815 0.99687856
0.64751583 -0.50195539 1.0029382
0.61990708 -0.4867883 0.97531098
0.61354834 -0.48812863 0.98115057
0.60665876 -0.4890767 0.98616391
0.59453398 -0.48577288 0.98241508
0.58622885 -0.48554218 0.98491663
0.5705514 -0.47911435 0.97457033
0.5632419 -0.4796313 0.9784981
0.56218737 -0.48556551 0.99364942
0.54677308 -0.47908941 0.9829675
0.54115665 -0.48113409 0.98997587
0.53072864 -0.47889814 0.98799807
0.52588242 -0.48170733 0.99655348
0.52429008 -0.4876292 1.0116549
0.520854 -0.49199441 1.0234919
0.51645994 -0.49557877 1.0336809
0.54519385 -0.53157938 1.1126549
0.54478675 -0.53988034 1.1330326
0.53517836 -0.53918749 1.1342717
0.54622382 -0.559632 1.1806318
0.52803558 -0.55031365 1.1633914
0.51827008 -0.5496006 1.1644882
0.52525109 -0.56693769 1.204366
0.5506267 -0.60511941 1.2892995
0.50487065 -0.56509656 1.2055589
0.49488464 -0.5643568 1.2064619
0.48491436 -0.56360698 1.207288
0.47562554 -0.56363535 1.209751
0.46143356 -0.5577383 1.1992615
0.45606366 -0.56248158 1.2118918
0.42261225 -0.53206766 1.1476614
0.40980196 -0.52690065 1.1384315
0.39865634 -0.52369618 1.1334218
0.39114463 -0.52522904 1.1387531
0.37896347 -0.52041912 1.1300898
0.36382881 -0.51123571 1.1117054
0.35229227 -0.50679171 1.1036782
0.34331718 -0.50590593 1.1034466
0.33436564 -0.50501144 1.1031468
0.32236075 -0.49934152 1.0922059
0.31303477 -0.49763235 1.0899847
0.30522117 -0.49830016 1.0929979
0.29667011 -0.49776754 1.0932997
0.28859347 -0.4980233 1.0953149
0.27960753 -0.4966788 1.0937161
0.2715323 -0.49691972 1.095613
0.26323411 -0.49675485 1.0965616
0.25923774 -0.50495869 1.116222
0.25100487 -0.50518179 1.1179771
0.24295303 -0.50579691 1.120572
0.23450717 -0.50560647 1.1213164
0.22660038 -0.50660712 1.1246989
0.21831332 -0.50680178 1.1262282
0.21001689 -0.50698924 1.1277004
0.20218858 -0.50836945 1.1318232
0.19293955 -0.50614226 1.127762
0.18711795 -0.51311177 1.1444392
0.17771964 -0.51046956 1.139356
0.16986662 -0.51222366 1.1441747
0.16106999 -0.51116705 1.1425898
0.15302375 -0.51250678 1.1463923
0.14662711 -0.51985198 1.1637791
0.13732535 -0.51717055 1.1583872
0.12721136 -0.51087135 1.1447308
0.11860861 -0.5101772 1.1437526
0.11046033 -0.51148123 1.1472738
0.10202751 -0.51157457 1.1480031
0.093663655 -0.51206183 1.1495875
0.084881783 -0.51013362 1.1456339
0.075741306 -0.50538749 1.1352205
0.066756546 -0.50063282 1.1247401
0.058256261 -0.49868023 1.1205964
0.050141942 -0.49993259 1.1237129
0.041817423 -0.4991698 1.1221981
0.033571646 -0.499203 1.1224568
0.024998419 -0.4928028 1.1080097
0.016938662 -0.49523109 1.1136473
0.008784336 -0.49684906 1.1173986
0.0005686339 -0.4916316 1.1055255
-0.0075609484 -0.4920302 1.1064174
-0.015652237 -0.49081498 1.1035904
-0.024169702 -0.49923196 1.1226827
-0.031869449 -0.49077314 1.1032642
-0.040041581 -0.49154475 1.1048484
-0.048277836 -0.49271065 1.1072907
-0.057655238 -0.50350565 1.1316283
-0.06491565 -0.49542174 1.1129169
-0.071848899 -0.48693106 1.0932499
-0.078764178 -0.48004103 1.077199
-0.08748024 -0.48438272 1.0866749
-0.096100852 -0.48751235 1.0933477
-0.10370889 -0.48541856 1.0881004
-0.11235414 -0.48813155 1.0937406
-0.11989994 -0.48602432 1.0883882
-0.12832423 -0.48751923 1.0911775
-0.13567448 -0.48499814 1.0848132
-0.14400819 -0.48607776 1.0865796
-0.15099679 -0.48274302 1.078302
-0.15971996 -0.48501009 1.0826781
-0.16629972 -0.48086274 1.0724953
-0.17462628 -0.48191431 1.0740402
-0.18252988 -0.48175785 1.0728133
-0.19216539 -0.48599446 1.0814623
-0.24179703 -0.58698583 1.3082336
-0.23068163 -0.53840536 1.1975775
-0.21512884 -0.48346069 1.0727569
-0.22118559 -0.47927499 1.0622698
-0.22901075 -0.47907805 1.0607219
-0.23761545 -0.48047063 1.0627015
-0.24993144 -0.48903489 1.080709
-0.25452918 -0.48243359 1.0646799
-0.264763 -0.4865914 1.0727041
-0.27602121 -0.49233136 1.084199
-0.28355545 -0.49129039 1.0804951
-0.29246902 -0.49263075 1.0820611
-0.30530471 -0.50032598 1.0977159
-0.31514624 -0.50283808 1.1017668
-0.32915312 -0.51169652 1.1198395
-0.33872572 -0.51339036 1.1219407
-0.35183668 -0.52023345 1.1353776
-0.36406371 -0.52547425 1.1451857
-0.36605152 -0.51603627 1.1225442
-0.38986889 -0.53710133 1.1670808
-0.39760584 -0.53556871 1.161751
-0.41099158 -0.54154605 1.1728655
-0.41291362 -0.53248519 1.1509494
-0.40734378 -0.51434267 1.1092006
-0.4331046 -0.53569365 1.1537457
-0.44326663 -0.53728211 1.1550215
-0.46143356 -0.54832041 1.1767848
-0.44175121 -0.51482344 1.1017668
-0.47676498 -0.54513156 1.1651726
-0.44088557 -0.49475971 1.0538974
-0.44513774 -0.49043754 1.0423464
-0.44344011 -0.47983184 1.0172695
-0.45284188 -0.48139802 1.0183886
-0.46453682 -0.48530579 1.0244693
-0.46376085 -0.4762736 1.0028068
-0.47354451 -0.47820643 1.0045795
-0.48456132 -0.48130065 1.0087636
-0.48527333 -0.47422478 0.99128598
-0.49590173 -0.47691035 0.9945119
-0.49424866 -0.46788558 0.9729327
-0.50108308 -0.46704984 0.96866381
-0.51085007 -0.46893138 0.97007483
-0.54431307 -0.49218324 1.0162176
-0.53706878 -0.47848377 0.98481721
-0.561652 -0.49312603 1.012615
-0.55398113 -0.47943565 0.98130226
-0.58218217 -0.49673849 1.014359
-0.56861037 -0.47841376 0.97352445
-0.60055929 -0.49836615 1.011761
-0.59538919 -0.48739284 0.9861632
-0.64571279 -0.52153391 1.0530879
-0.76951277 -0.61334002 1.2373222
-0.8080678 -0.6356982 1.2789427
-0.86162114 -0.66913009 1.3427007
-0.98170388 -0.75272673 1.5074605
-0.97925901 -0.74145818 1.4797643
-0.98925215 -0.73976934 1.4714121
-0.97744113 -0.72201562 1.4308445
-0.99542248 -0.72643155 1.4347172
-0.84961575 -0.61263841 1.2033191
-0.90988952 -0.64837527 1.2698702
-0.84756243 -0.59693325 1.163671
-0.95769364 -0.66673893 1.2967806
0.75007671 -0.52395499 0.9921599
0.78242809 -0.55283076 1.0516241
0.87496638 -0.62539709 1.1960917
0.9691419 -0.70085353 1.3471481
1.0203893 -0.74669141 1.4414111
1.0744746 -0.79573458 1.5425217
1.0504876 -0.78744966 1.53161
1.0374726 -0.78728646 1.5365362
1.0092484 -0.77543348 1.5182784
0.98986185 -0.77015686 1.5128543
0.84637564 -0.66695303 1.3123507
0.82087761 -0.65525353 1.2932202
0.75848556 -0.61340904 1.2134978
